ply
format ascii 1.0
comment VCGLIB generated
element vertex 1848
property float x
property float y
property float z
element face 0
property list uchar int vertex_indices
end_header
13.294 -9.01563 376.331 
60.2913 -47.5499 394.067 
14.8271 -9.19506 376.433 
15.076 -9.23771 376.409 
39.5304 47.8264 371.807 
17.8023 -9.07281 376.145 
39.2993 47.9883 372.18 
-6.45185 10.9103 374.45 
17.9297 -9.29056 376.41 
87.9623 -28.5441 401.161 
21.3083 -9.53376 389.214 
50.8565 -51.0561 394.635 
23.7205 -9.51509 389.943 
83.1621 30.2461 387.329 
78.3117 -9.47779 395.235 
78.444 -9.74406 394.783 
85.3578 17.8886 389.407 
47.153 -3.54208 377.671 
78.5751 -9.62323 392.118 
53.3028 -59.0404 398.599 
86.9547 -20.5656 397.541 
84.354 -9.51311 392.572 
85.8122 -9.54572 395.095 
59.6782 -42.8666 394.575 
86.0151 -9.76039 395.445 
0.815887 -6.59069 377.961 
68.8661 35.503 377.99 
-6.33636 24.6556 372.298 
-23.5922 -45.0902 385.948 
81.4476 -22.4986 397.696 
-10.6872 -2.45078 381.129 
88.3212 -9.58238 396.983 
76.6842 24.449 379.228 
62.2634 0.491971 378.766 
-25.5409 -53.7179 377.901 
-23.3142 -9.47406 389.756 
-19.7684 -9.57774 392.51 
1.79327 -3.06219 378.163 
-18.3755 -9.59859 393.365 
-3.70701 -0.922941 375.785 
-10.9731 -9.59691 393.296 
-10.5401 -9.60482 393.62 
-8.79846 -9.57387 392.352 
-0.651993 -9.0081 379.137 
-0.251393 -9.03493 378.987 
-6.29545 11.4352 375.574 
25.2592 -1.676 375.384 
-0.0739812 -9.02929 378.75 
0.292346 -8.97581 378.738 
0.802996 -9.02922 378.561 
2.82862 -9.06858 378.171 
3.30612 -9.06762 378.132 
4.28901 -9.17496 377.937 
4.82892 -9.04875 377.694 
-8.85579 2.0109 374.954 
84.8464 -6.03582 393.489 
6.65908 -9.0819 377.401 
-8.21856 -6.16811 391.684 
6.85717 -9.03265 377.276 
7.83314 -9.05927 377.231 
-24.3326 -48.7922 384.519 
81.2789 -34.6643 398.355 
8.80338 -9.043 377.105 
22.8596 -56.2004 395.068 
14.3648 -9.00381 376.297 
18.8071 -8.99793 376.071 
-12.2306 -8.91767 393.781 
-4.29919 40.9765 372.413 
59.8347 -56.5295 399.176 
-2.72364 -54.5019 403.111 
20.0919 -9.207 377.317 
20.2695 -9.23968 378.656 
89.9933 45.0831 394.388 
78.2093 -9.53288 397.535 
78.406 -9.4976 393.758 
91.9554 30.0609 394.412 
47.4082 -56.5395 396.758 
88.9773 -9.66068 397.434 
-20.1735 33.4503 375.217 
62.925 0.897224 378.914 
89.775 -9.55763 398.028 
75.668 -60.0104 404.841 
90.4245 -9.4997 398.484 
83.2953 36.4441 388.027 
91.6569 -9.5757 399.32 
-19.7234 32.9571 374.628 
27.046 -2.71895 373.856 
91.9023 -9.57949 399.476 
6.80394 -58.065 401.128 
52.7339 -59.0137 398.285 
92.4941 -9.6466 399.934 
48.8023 -55.0474 396.546 
92.9916 -9.71364 400.384 
62.7694 -46.411 394.331 
93.6869 -9.46398 400.761 
-20.7849 18.1571 377.926 
1.82204 -55.5954 402.096 
-19.3103 -26.1871 391.603 
93.8686 -9.64881 400.96 
13.3057 -6.52961 375.666 
94.7899 -9.55081 401.719 
-17.5384 -9.45797 394.41 
-4.30533 1.92337 374.312 
86.1111 -1.36788 392.844 
-16.8069 -9.43526 395.005 
-13.6846 -9.4777 394.656 
-12.8982 -9.52163 394.753 
-14.3142 28.6327 373.837 
-9.36566 -9.48023 393.037 
-8.01586 -9.45025 391.794 
60.5393 -47.7216 394.41 
14.7882 -8.93468 376.259 
19.2849 -8.96473 376.042 
55.752 -52.578 396.793 
19.8196 -8.9678 376.171 
-4.21831 40.9622 372.197 
-2.81649 -54.7046 403.438 
20.4353 -9.11243 377.789 
-15.1829 11.971 376.945 
20.7457 -9.07926 378.616 
88.7411 -21.0236 400.597 
20.7643 -9.16401 379.927 
88.978 -21.1794 400.991 
20.9199 -9.18548 380.817 
28.3771 -1.70244 374.244 
21.3995 -9.30101 385.607 
-13.2005 -17.2911 378.016 
21.8621 -9.38334 389.02 
72.7509 35.4788 377.055 
26.6761 -9.38606 389.133 
26.8927 -9.40449 389.897 
-17.9804 -57.0213 394.389 
5.2274 -3.75096 382.756 
78.5006 -9.46236 392.296 
85.1423 -9.4537 394.232 
3.68101 -6.57067 377.476 
86.6444 -9.43536 395.784 
87.4619 -9.50729 396.467 
88.0849 -9.45875 396.766 
76.9418 24.3971 379.486 
62.3845 0.258863 378.934 
76.5689 1.85023 385.347 
-16.7311 44.9682 373.504 
95.2937 -9.53352 402.006 
1.40355 -14.4652 380.466 
42.8053 -1.57224 374.636 
-26.7013 -9.11492 389.432 
74.3631 -2.71887 384.99 
-25.7152 -9.21757 389.516 
-25.1664 -9.0785 389.508 
-24.7348 -9.07684 389.654 
69.8059 -51.0609 400.492 
-23.6944 -9.08594 389.681 
-23.2956 -9.07942 389.679 
-26.5612 9.1344 377.824 
-25.6622 -54.0629 377.63 
-23.0948 -9.02868 389.952 
-2.22478 43.9647 372.053 
91.9314 -22.189 403.377 
33.0386 -7.84928 388.784 
-14.7023 43.9511 373.031 
-13.7161 -9.37727 394.898 
76.0488 7.4142 384.905 
-18.8523 -6.80994 391.796 
-15.1885 -8.06735 394.646 
1.34245 -8.92757 378.303 
52.4126 45.8471 370.325 
-14.7617 -19.8319 375.878 
20.7478 -9.00386 377.684 
21.039 -9.03784 379.11 
87.9569 -17.0543 398.964 
21.6439 -9.15867 384.178 
69.9351 -55.7438 401.946 
34.2612 -4.47402 374.312 
21.8904 -9.21703 386.626 
10.4066 -55.1116 397.066 
22.4715 -9.30031 390.119 
22.8434 -9.29561 389.922 
10.5386 -11.5282 380.494 
23.3351 -9.23901 389.514 
40.8289 -48.0433 391.563 
71.1003 -1.71647 384.446 
76.7897 -1.04393 385.233 
-11.2232 2.92142 376.966 
50.7656 -50.7025 394.051 
23.828 -9.20801 389.584 
24.2941 -9.0664 389.482 
-19.2925 -37.3875 394.046 
-1.94608 0.222514 377.438 
24.3375 -9.17153 389.302 
87.2796 -38.5507 405.24 
59.9637 -0.680925 378.877 
25.5394 -9.13488 389.295 
-19.0355 24.2464 376.907 
25.8579 -9.08057 389.539 
26.7001 -9.13309 389.217 
-2.852 -8.53586 385.281 
-8.55966 1.06395 375.177 
26.8831 -9.00642 389.469 
-8.72446 0.940461 375.584 
2.37498 -60.0869 403.32 
78.3297 -9.39778 394.208 
5.14443 -56.6321 401.442 
20.2665 -6.07919 374.994 
78.4763 -9.33621 391.625 
33.2948 -0.628217 374.294 
78.8566 -9.06575 390.126 
79.2867 -9.13344 390.009 
-14.3061 17.4187 375.924 
41.5102 -6.00289 389.4 
-9.66471 31.4421 372.653 
22.9507 -3.66354 373.835 
-8.16207 -59.2276 405.904 
79.7301 -9.16874 389.959 
-24.2463 33.999 376.965 
80.9111 -9.12111 389.951 
80.698 -9.02928 389.768 
35.2903 -49.5689 391.609 
81.2837 -9.05683 390.116 
84.4633 -9.36602 392.876 
11.8453 34.3986 374.517 
-15.6702 -3.0299 381.616 
86.1265 -9.38627 395.277 
-25.6726 -8.95103 389.221 
45.5182 -48.5183 391.9 
-12.2347 -12.0557 394.531 
-25.2713 -9.02516 389.276 
-22.2332 -9.12021 390.449 
95.2606 -54.5663 415.113 
-20.6312 -9.05733 391.454 
62.2934 42.0339 372.623 
70.7782 -1.84131 388.006 
-11.6413 37.9681 372.762 
80.5652 18.1034 385.83 
-10.2042 -55.5357 404.006 
-18.2289 -8.97293 393.669 
34.7704 -3.00873 374.212 
-11.7351 37.7903 373.049 
-18.0627 -9.16014 394.037 
4.34389 -14.5978 379.958 
-13.0322 -7.50783 393.778 
34.9179 -3.07337 374.403 
-17.6813 -9.07651 394.111 
84.8157 13.9349 389.042 
80.2599 -51.5756 405.258 
-17.2822 -9.21921 394.461 
84.2706 45.43 389.638 
-22.5809 31.2159 371.681 
-17.1861 -9.04497 394.181 
75.3898 -38.1919 400.943 
-15.6933 -9.00789 395.01 
7.17922 40.9264 372.499 
85.1179 -15.0646 394.29 
94.8209 -1.05346 399.092 
-15.6131 -9.20251 394.735 
-14.7181 -9.07034 394.677 
-14.2248 -9.04971 394.658 
-13.6368 -9.04763 394.689 
-6.53208 -45.4297 398.593 
-13.7676 -9.14795 394.892 
76.0482 7.84645 384.902 
-18.8405 -6.40256 391.552 
-8.75592 -9.02781 392.561 
26.2928 -4.97856 374.41 
-8.18286 -33.0983 394.923 
-8.54328 -9.06517 392.269 
17.8067 39.3304 370.821 
3.9234 -40.6023 393.645 
-6.69344 -9.06215 391.661 
-9.41704 -8.59387 392.879 
94.7479 37.9315 397.106 
95.1988 6.90744 396.93 
-14.6921 -6.12919 393.68 
-5.65891 -9.05568 391.2 
1.02384 -8.91295 378.327 
16.3197 -8.85445 375.844 
18.4807 -8.85328 375.794 
21.3074 -58.0918 396.657 
21.1152 -8.87394 376.671 
21.4686 -58.2747 396.891 
21.2897 -8.88055 376.952 
58.8196 -56.5538 398.733 
22.0665 -9.00315 382.156 
23.3138 -9.0973 389.245 
25.6498 -8.98952 389.311 
38.8183 -47.5791 392.14 
78.3799 -9.05013 391.144 
39.0204 -47.7416 391.848 
78.4739 -8.98509 390.701 
-23.6921 45.704 374.952 
78.6535 -9.11653 390.458 
7.4669 -54.0751 397.56 
81.8583 -9.06008 390.495 
-22.1645 17.8741 375.769 
55.4815 4.79679 378.782 
82.8351 -9.06881 391.038 
83.2293 -9.0327 391.18 
83.4889 -9.11429 391.539 
-21.3123 2.40991 379.761 
83.9249 -9.0983 392.035 
86.6409 -21.0658 397.15 
84.1432 -9.06654 392.191 
86.8486 -21.1084 397.532 
-10.6934 -9.53843 393.162 
84.3729 -9.04769 392.626 
15.4608 -9.53553 376.345 
84.656 -9.01626 393.258 
89.7255 -9.37325 397.865 
-0.638815 -16.0338 379.979 
-23.6869 -9.07577 389.885 
23.3141 37.0864 371.681 
83.2686 -15.0624 393.173 
45.7649 -4.97311 389.627 
-22.6858 -3.46279 383.148 
-17.5424 -9.18319 394.5 
10.3037 47.8137 372.013 
92.6464 -2.41845 397.815 
-26.956 2.47718 381.914 
-16.206 -9.12557 395.002 
-27.6495 -31.0773 394.092 
2.84607 -8.59223 378.034 
5.2994 -8.60728 377.527 
76.1076 28.3924 379.273 
-23.3777 -51.6576 383.615 
7.7974 -8.56645 377.102 
21.8603 -10.3916 389.964 
9.7912 -8.71507 376.988 
89.3322 -61.4757 412.092 
10.3252 -8.55525 376.609 
83.1445 29.9788 387.247 
8.33681 -4.76014 377.554 
-18.2016 -1.95359 381.151 
-12.1778 -51.5452 396.562 
11.8234 -8.59502 376.499 
71.7274 -2.0428 384.914 
12.361 -8.57277 376.451 
12.3025 -8.53363 376.278 
42.3671 42.0171 370.727 
13.4402 -8.55227 376.479 
14.8006 -8.54431 376.126 
41.2769 41.9451 370.654 
-10.8829 -18.7162 376.79 
81.6211 1.43201 389.316 
16.3639 -8.50724 375.964 
66.8055 -49.6014 399.003 
16.7789 -8.60925 375.999 
87.3537 -3.59347 394.508 
17.8712 -8.61875 375.92 
18.3809 -8.64491 375.91 
25.2951 -53.0327 393.143 
18.8288 -8.68418 375.897 
68.7169 -0.959939 384.097 
19.7892 -8.47907 375.7 
21.822 -54.0671 394.073 
20.335 -8.68505 375.935 
-2.73778 -34.1372 391.037 
20.3221 -8.46627 375.697 
21.2222 -8.45301 375.758 
5.68687 -58.7616 401.937 
22.139 -8.79675 377.899 
-13.2062 -0.52168 379.095 
22.3508 -8.83854 379.694 
-13.2315 -0.126207 378.906 
22.5935 -8.89208 381.994 
50.7956 -50.4378 393.568 
23.8071 -9.04322 389.269 
27.2731 -8.92484 389.271 
81.2475 -47.7855 404.322 
27.8178 -8.91442 389.055 
81.321 -47.5446 404.687 
-12.6998 -56.0889 403.119 
27.8614 -8.97416 388.646 
-16.6196 20.9821 376.34 
55.7966 1.43812 376.601 
28.1787 -9.06711 389.513 
81.6782 -8.97631 390.32 
85.8855 -9.03794 395.068 
-14.1343 -5.43709 392.758 
78.7458 -11.9089 404.301 
86.1071 -9.00102 395.256 
70.7888 -0.0429864 382.181 
88.1905 -9.04038 396.74 
-15.7415 45.76 372.835 
88.4316 -9.11107 396.988 
91.6359 29.5928 393.832 
-20.744 -38.4015 388.081 
89.0025 -9.25025 397.381 
89.3563 -9.06604 397.559 
2.68939 -31.9229 395.159 
89.7411 -9.04352 397.725 
74.7054 42.8503 381.795 
2.73574 -31.968 395.443 
89.9735 -9.0238 397.939 
90.3731 -9.22046 398.504 
-18.6288 -1.70125 381.038 
32.8606 -51.1309 391.989 
90.8377 -9.0537 398.551 
11.277 -6.04543 375.971 
1.39435 -58.5767 403.578 
91.1797 -9.02613 398.746 
6.77236 -58.5648 401.426 
92.3009 -9.04345 399.621 
26.1753 37.4429 373.414 
-12.6438 -36.8149 390.323 
-27.7698 -8.88026 389.313 
-24.5279 -8.89891 389.332 
-4.75654 -8.92906 390.651 
-4.5679 -8.93595 390.154 
-4.28451 -8.91645 389.621 
49.793 -0.0422514 375.586 
-3.80362 -8.88109 388.552 
-3.59888 -8.85134 388.045 
24.9872 46.8236 371.858 
-0.890989 -8.67315 379.455 
74.2481 3.48996 382.726 
-24.1152 -57.0554 379.066 
81.1058 -5.02888 388.768 
-25.8415 -3.14731 383.411 
-0.670617 -8.5651 379.094 
-25.6463 29.4516 367.55 
-0.293886 -8.60733 378.902 
0.280401 -8.54704 378.588 
0.766235 -8.59108 378.522 
72.3249 44.4507 380.102 
72.8104 12.9314 380.003 
92.4627 -59.0242 413.868 
17.3115 -8.46985 375.753 
22.7328 -8.64142 378.067 
28.3387 38.1163 371.688 
-13.6344 -0.521802 379.209 
22.765 -8.72723 379.49 
22.9915 -8.77299 381.48 
-2.71701 -59.0261 405.498 
23.2439 -8.82816 383.879 
28.2976 -8.88841 389.214 
-17.6619 26.8237 375.454 
-16.7913 -22.3762 375.712 
93.2394 -8.99092 400.241 
94.0594 -9.21872 400.862 
84.1535 43.4957 389.299 
84.7854 11.918 389.038 
-22.1658 -11.1169 390.265 
95.2255 -9.06415 401.771 
75.8492 -47.5847 401.986 
78.7843 -59.0135 406.165 
42.8401 -2.15524 374.928 
-16.6506 45.2495 373.435 
95.4173 -9.13108 401.959 
27.9286 -4.24762 374.429 
-18.5327 -8.93177 393.185 
80.6519 -2.17293 388.86 
92.7039 35.6434 395.321 
-17.8751 -8.86969 393.696 
91.1166 -49.0472 410.768 
-12.8335 -8.90558 394.47 
-12.6038 -8.89979 394.214 
-25.7174 12.8963 375.765 
-11.8306 -8.95641 394.269 
-23.7021 -20.0652 373.671 
-4.87032 -8.88169 390.98 
-4.41962 -8.85851 389.96 
22.8379 -4.67827 374.396 
3.05913 -3.30083 380.425 
51.4004 -51.6961 395.501 
-3.33547 -8.68219 386.982 
-3.2523 -8.56434 386.567 
43.7631 41.3302 371.598 
8.86703 -8.45397 376.809 
-22.2187 -5.89346 387.954 
86.122 -38.0185 404.287 
23.0544 -8.60937 378.992 
23.2561 -8.64476 380.55 
23.7204 -8.73708 384.614 
-4.54471 -4.602 379.082 
59.3427 1.44206 377.634 
28.6741 -8.84934 389.556 
37.1838 45.7413 371.831 
77.5609 25.3592 381.709 
90.3233 -47.5 410.054 
3.25741 -59.2089 402.74 
75.7828 -1.03959 384.743 
78.1363 -8.93291 393.235 
-12.067 -6.16807 392.956 
78.1445 -8.86612 392.721 
94.0148 51.4745 397.91 
-12.249 -6.06789 392.659 
90.3445 -8.94403 398.199 
-6.95136 22.898 373.043 
-27.6019 -8.60781 389.516 
-27.2416 -8.58917 389.482 
-8.69995 23.9095 371.67 
-27.1522 -8.53831 389.34 
82.685 -26.0664 397.519 
79.2562 -3.02673 387.209 
-26.7291 -8.56036 389.207 
-5.92382 -39.176 395.347 
-26.6701 -8.59256 389.486 
-26.29 -8.60252 389.524 
67.3061 40.9203 373.572 
-26.1602 -8.54116 389.22 
-12.6721 45.4619 372.257 
-4.6855 -48.5175 400.656 
-25.7162 -8.56622 389.118 
80.2018 19.9967 384.737 
-4.20246 -48.1214 400.575 
-25.0653 -8.61051 389.473 
70.3109 -50.9806 400.674 
-24.3026 -8.51397 389.226 
-24.1066 -8.63138 389.592 
-25.7813 5.94518 381.036 
-23.6655 -8.561 389.535 
-23.2011 -8.53503 389.662 
56.9246 5.12131 379.185 
-23.1386 -8.74699 389.87 
-21.6134 -8.66869 390.57 
-21.2399 -8.53499 390.643 
91.6987 27.4396 393.746 
-21.0091 -8.60737 390.986 
86.012 32.513 389.994 
-16.8711 -8.8474 394.345 
61.4218 -55.9555 399.429 
33.5646 -6.66691 383.567 
-14.7889 -8.86035 394.922 
-24.1233 8.59249 379.192 
-12.4442 -8.849 394.417 
69.2815 4.91579 380.309 
-11.1767 -8.832 393.659 
73.9282 38.9532 380.572 
-11.3225 -8.83794 393.923 
75.6188 2.11233 383.82 
-6.53215 -5.39057 388.61 
29.6429 -57.6094 396.914 
-8.56639 -8.53755 392.319 
-3.64079 -10.6838 388.643 
-7.18068 -8.55986 391.743 
-5.12959 -8.50142 390.658 
-4.80996 -8.7071 390.535 
-4.70858 -8.57387 390.086 
-1.24054 41.2148 372.441 
-9.81609 -57.9563 404.786 
30.8351 -4.1597 374.401 
-4.26411 -8.56564 389.091 
-3.71849 -8.56642 387.642 
87.9004 -36.0877 404.984 
-3.51864 -8.57861 387.21 
-3.21098 -8.52834 386.166 
88.3592 -33.5869 404.539 
20.8208 -7.04788 375.178 
11.3924 -8.39877 376.232 
5.16082 -9.22077 377.881 
-19.21 -3.15766 382.49 
15.0525 -8.37909 375.824 
22.3104 -8.35924 375.722 
23.0918 -8.38602 376.133 
53.8006 -44.6957 392.77 
23.4072 -8.47653 377.815 
51.2975 -55.117 396.997 
23.579 -8.50025 378.872 
-13.6704 -32.8347 397.871 
23.7879 -8.53703 380.511 
71.3029 35.2641 376.522 
52.9132 -2.21564 377.532 
24.5089 -8.67882 386.831 
52.8427 44.4202 370.55 
24.702 -8.70862 388.159 
-19.2806 26.8443 375.496 
-11.7096 8.97495 375.591 
25.8488 -8.69151 389.486 
26.4092 -8.62322 389.225 
86.1204 -11.5733 395.738 
-22.3269 2.14346 379.787 
57.2915 44.9581 370.539 
27.2899 -8.60715 389.204 
80.196 -10.7457 390.896 
27.8149 -8.5646 389.175 
-7.23405 21.4408 374.119 
29.2016 -8.60621 389.444 
77.4566 -8.97402 399.989 
78.205 -8.71953 391.094 
-18.6198 27.3478 374.93 
78.274 -8.65405 390.616 
43.904 2.34001 377.09 
-18.6541 27.4649 374.723 
78.3114 -8.49397 390.1 
-4.53096 -57.3898 404.799 
43.7671 2.28544 376.823 
78.6405 -8.7496 389.986 
79.2943 -8.61105 389.6 
41.218 -5.60977 389.308 
35.2328 -49.0969 391.737 
8.42431 -55.7116 399.288 
81.3122 -8.564 389.973 
82.7253 -8.56953 390.763 
83.2456 -8.57187 391.102 
83.7368 -8.58112 391.578 
93.9554 -8.93813 400.898 
-21.0297 -8.67074 391.37 
90.3779 -39.0434 407.536 
-18.6793 -8.72785 393.947 
-18.2298 -8.58661 393.557 
-13.2068 -7.04257 394.04 
-17.2166 -8.58999 394.259 
-17.1455 1.97437 378.72 
3.31135 -43.6305 393.471 
-15.8046 -8.53627 394.75 
-15.605 -8.53671 394.998 
-15.3446 -8.52837 394.955 
-15.5671 43.3969 373.288 
-14.7329 -8.60134 394.91 
-14.1861 -8.60158 394.68 
-6.85627 -45.9117 397.921 
-13.7036 -8.64053 394.623 
-12.6799 -8.62458 394.284 
-11.31 -8.71771 393.49 
-21.6532 2.97131 380.191 
-9.72144 -8.52673 393.021 
41.8081 -48.0124 391.564 
-9.63536 -8.56974 392.784 
-9.17967 -8.53104 392.66 
94.8513 17.003 395.514 
47.8292 -2.03477 375.67 
-7.69696 -8.52629 391.802 
-1.0501 -8.40119 379.203 
17.3055 -58.0829 395.986 
-10.2396 -7.52152 393.048 
67.8943 44.0086 375.083 
22.8073 -8.32573 375.797 
89.5347 24.9356 391.896 
25.6463 -8.62395 389.257 
77.991 -8.59173 392.781 
78.0975 -8.62209 391.656 
84.9592 -8.56266 393.981 
48.554 -3.80254 388.019 
85.2193 -8.52474 394.218 
85.4653 -8.65477 394.65 
41.8066 45.9253 371.701 
86.4585 -8.59441 395.442 
86.757 -8.52425 395.621 
89.3 -42.0552 407.653 
87.0044 -8.71563 395.905 
36.3001 -1.56512 374.069 
88.3138 -8.56501 396.65 
-3.56609 1.55067 375.049 
-2.77289 -31.9139 389.364 
88.3393 -8.79344 396.908 
65.8271 -54.5395 400.148 
-21.1188 -10.065 390.984 
88.9118 -8.60617 397.082 
-18.1464 -8.52174 393.187 
11.2687 -5.04891 376.503 
-17.1751 -8.53274 394.424 
-16.8718 -8.62628 394.361 
-13.1046 -8.55103 394.295 
-4.63493 -8.4685 389.649 
25.021 46.6824 371.842 
-0.603507 -8.06507 378.731 
69.9302 41.4609 375.459 
81.1474 -4.55611 388.793 
0.285401 -8.08676 378.487 
78.2973 -49.5408 403.61 
-23.3379 -2.7809 382.374 
0.728902 -8.1356 378.405 
0.85776 -8.02243 378.288 
85.3765 -15.0475 394.547 
1.31306 -8.0455 378.18 
6.46845 -10.8814 377.822 
1.78486 -8.07216 378.101 
-8.40933 -47.4914 387.117 
3.77916 -8.04879 377.655 
4.30891 -8.0479 377.614 
-5.1567 42.9461 372.038 
4.826 -8.08935 377.465 
5.57797 -8.25502 377.388 
94.8493 34.9569 397.028 
6.31591 -8.03386 377.16 
-16.7102 10.9625 377.574 
85.236 -35.038 400.618 
6.8026 -8.03026 377.022 
80.1571 -36.8999 398.339 
-24.1354 -26.9938 390.944 
7.74198 -8.08735 376.982 
50.3075 3.32112 376.28 
-13.2015 9.94895 376.531 
8.30892 -7.93698 376.823 
9.26702 -8.02593 376.583 
10.2814 -8.08934 376.458 
54.0848 -49.2536 393.379 
10.8854 -8.03362 376.324 
11.2511 -7.96375 376.501 
46.3249 43.9218 370.324 
12.1682 -8.17997 376.373 
94.2519 12.9264 395.238 
-23.195 -7.50049 389.095 
12.3357 -8.00456 376.227 
92.982 37.031 395.915 
93.3705 4.94768 396.102 
12.7994 -8.02162 376.132 
72.8063 -2.60863 385.477 
84.1454 32.9433 388.354 
95.0301 -62.0073 415.949 
13.2776 -8.07574 376.051 
-16.7168 2.92551 378.578 
14.3096 -8.07474 376.005 
-18.1468 23.9835 376.309 
-16.3516 -14.4206 393.835 
15.3306 -8.07502 375.914 
16.2005 -8.18276 376.015 
83.5819 13.4753 388.269 
16.3592 -8.02291 375.781 
18.3148 -8.06782 375.637 
73.3962 -3.73241 392.097 
6.74116 33.276 374.309 
82.5141 -3.72156 390.958 
18.2209 -8.22192 375.875 
18.8356 -8.05568 375.505 
59.2138 2.48822 377.332 
9.78417 34.1262 372.12 
21.3993 -59.1028 397.486 
21.2637 -8.05684 375.559 
21.7894 -8.05624 375.532 
22.8012 -8.01192 375.572 
24.3665 -8.23006 376.247 
60.7849 -50.0379 397.013 
24.7213 -8.2781 378.443 
10.8041 -11.5838 382.329 
24.9789 -8.32858 380.751 
-25.1751 -5.75624 387.516 
-25.8481 5.2582 381.391 
34.7978 -52.5213 392.621 
30.142 -8.4487 388.737 
-26.1063 29.4527 367.088 
77.5095 -8.75536 400.262 
-25.0472 -48.715 383.063 
-10.7148 0.337837 378.014 
72.2648 -52.2053 401.93 
77.5278 -8.74475 399.777 
13.7814 -8.04416 376.087 
77.75 -8.69428 397.469 
5.25594 46.9059 372.097 
92.4443 42.5851 395.873 
-14.1757 -33.9805 397.771 
77.8711 -8.65811 395.816 
78.0228 -8.57703 392.109 
2.42072 -45.9476 394.774 
78.4248 -8.3882 389.73 
-24.5982 -4.96595 385.297 
-4.7056 -57.4809 405.154 
43.8285 2.2276 375.989 
90.2985 -8.52749 398.099 
10.756 35.4456 370.801 
2.06211 -30.526 394.029 
2.83866 -3.49291 378.093 
91.7812 -8.59101 399.153 
92.3227 -8.55762 399.557 
46.8633 -0.340326 374.788 
14.279 -56.5982 396.431 
92.6294 -8.63107 399.71 
-22.7732 24.8769 377.463 
92.8569 -8.58004 399.949 
94.3677 -8.5882 401.078 
95.2431 -8.58198 401.711 
95.4278 -8.51123 402.003 
-23.6536 -8.40708 389.338 
0.386544 -1.97294 378.425 
-21.7126 -8.41749 389.82 
49.3149 47.4535 371.626 
-4.52024 -8.40401 389.195 
-1.63721 -7.9823 379.537 
0.253643 -7.95674 378.321 
78.8777 41.9715 385.072 
94.5557 35.1086 396.803 
95.2213 9.86571 396.559 
6.31953 -8.14877 377.375 
18.3538 -7.89438 375.356 
7.41086 -7.96772 376.831 
74.3817 41.9497 381.502 
74.5876 10.3576 381.851 
-12.1402 -1.13273 379.563 
76.1931 28.8507 379.7 
80.3672 -37.0854 398.565 
7.88532 -7.93663 376.806 
9.57856 -8.12681 376.358 
23.8001 -8.00592 375.644 
-0.109766 -17.6638 379.945 
30.7119 -8.40073 389.044 
79.2716 -8.40671 389.321 
-13.2503 -48.0215 380.975 
41.442 -5.66062 389.492 
92.0303 -8.51185 399.383 
-27.1871 -8.12111 389.058 
-12.6886 3.92994 377.249 
-24.6921 -8.0751 389.146 
-24.2206 -8.06103 389.185 
-23.9905 -8.19148 389.483 
-25.7619 5.51052 381.066 
-23.6478 -8.17623 389.5 
40.7777 -47.5047 391.968 
-23.7204 -8.03891 389.281 
-23.177 -8.05831 389.464 
6.77095 -9.54252 377.523 
-16.0681 -8.36339 395.02 
-12.3888 -8.40602 394.417 
-5.21332 -19.5261 378.68 
-11.7646 -8.39526 393.913 
34.2215 -6.73259 387.345 
-4.57405 -8.23854 389.123 
-3.77142 -8.21415 387.115 
-3.54875 -8.16577 386.541 
-3.39961 -8.17326 386.04 
20.8266 -7.47134 375.283 
22.1252 -7.92758 375.265 
24.7709 -7.94275 375.65 
-19.2134 -53.5719 389.638 
-26.7448 -5.74283 386.613 
74.3012 -52.5753 402.602 
-0.682757 -20.0578 382.194 
27.0531 -8.29172 389.054 
91.2076 41.4399 394.706 
82.9298 -55.2036 407.456 
78.6745 -8.21266 389.449 
47.2442 -3.26614 376.426 
28.2803 -8.13357 388.805 
8.83453 37.8909 371.216 
-12.6933 -6.54339 393.129 
-7.171 23.8647 372.017 
29.3001 -8.12309 389.153 
-24.7995 -51.5698 379.185 
-25.0651 -19.4781 379.265 
30.1194 -8.19444 388.586 
30.8243 -8.05291 389.128 
30.7277 -8.16046 388.75 
77.9147 -8.34525 391.566 
78.0418 -8.32363 390.552 
3.61334 -3.21189 382.554 
-12.2333 -41.2441 380.953 
78.2858 -8.06423 389.551 
78.8411 -8.03325 389.174 
-9.81657 11.4231 373.454 
-0.705955 -43.5789 395.174 
-8.00732 -57.9136 405.282 
79.7967 -8.0335 389.186 
67.7756 46.4286 376.681 
-9.55997 11.4513 373.278 
-0.839723 -43.6946 395.451 
-8.17883 -57.9767 405.636 
79.8929 -8.26303 389.418 
-8.69666 -59.062 405.588 
80.3967 -8.16835 389.422 
82.6059 -8.31942 390.354 
90.7149 -8.40458 398.285 
-24.8508 -7.9866 388.826 
-21.7026 -8.03828 390.008 
1.29943 -48.6904 397.649 
-20.6465 -8.05364 391.05 
-18.1746 -8.15715 393.581 
81.6264 43.7798 387.267 
55.7983 4.43805 377.104 
-22.6937 -2.54798 382.184 
-17.6906 -8.02202 393.69 
93.0121 38.4771 395.924 
93.1249 3.59349 396.215 
-22.5015 -2.34818 381.846 
-17.6286 -8.28545 393.951 
78.6921 34.4224 384.172 
-15.1825 -0.999032 379.647 
-16.7309 -8.05114 394.266 
-20.9797 -57.7379 384.413 
-16.5438 -8.18546 394.462 
3.27071 -44.0587 393.618 
-15.659 -7.9785 394.727 
86.7246 26.5364 389.817 
-14.2587 -8.14346 394.573 
88.8185 -0.56752 394.553 
-12.7111 -8.06747 394.109 
-12.255 -8.15863 393.931 
-11.7118 -8.28645 393.998 
68.7868 1.96574 380.773 
-11.3227 -8.28503 393.931 
0.778134 -62.111 403.963 
-11.2024 -8.2116 393.591 
74.3635 -45.707 399.06 
-7.72501 -8.01129 392.038 
-7.5574 -8.16667 391.791 
-3.75933 -10.0543 389.621 
-7.17619 -8.06727 391.749 
29.2987 -1.39591 374.471 
0.484288 31.7549 371.882 
-6.72164 -8.04105 391.58 
87.8572 24.952 390.602 
-3.23334 -8.10981 385.599 
64.1013 -0.754008 389.141 
-2.84422 -8.081 384.229 
80.7037 -47.5754 404.252 
-1.19105 -34.7486 390.503 
-2.7329 -8.07089 383.749 
5.31896 -7.87412 377.271 
-3.99059 -30.7178 390.838 
14.5254 -7.9045 375.837 
24.7288 -7.89387 375.332 
77.7909 31.4593 383.181 
-19.1118 25.5827 376.325 
-4.63082 -28.941 391.149 
25.7022 -7.90151 375.695 
30.3151 -49.1642 393.105 
26.0581 -7.94571 377.797 
-19.8704 -44.5303 380.942 
31.1245 -8.13551 389.421 
32.2206 -8.15441 389.453 
32.3237 -7.98962 389.074 
77.9067 -7.984 390.032 
91.7185 -6.04091 398.212 
81.8351 -8.02979 390.128 
88.12 22.4271 390.781 
-9.98198 2.56898 375.733 
82.8231 -8.0399 390.62 
82.9386 -8.22106 390.889 
83.1479 -8.1103 390.841 
83.3099 -8.01933 391.086 
-20.5578 -41.4934 383.256 
83.7086 -8.07242 391.667 
35.8077 0.46691 375.098 
88.9308 15.4745 391.498 
83.9475 -8.0245 392.012 
35.8364 0.287835 374.665 
84.7763 -8.0663 393.603 
78.7795 39.44 384.712 
95.6008 -29.4611 408.408 
6.27474 -5.48454 376.999 
85.0359 -8.02825 393.995 
-7.73739 -41.353 386.132 
3.65453 -12.7378 379.395 
80.162 -0.0846556 388.735 
85.2465 -8.04969 394.225 
85.7482 -8.06465 394.693 
87.8911 -7.07479 395.984 
69.7744 -1.065 383.093 
-25.1139 -7.95742 388.734 
-24.531 -8.08002 389.381 
-23.2688 -7.96902 389.3 
-22.8868 -8.02391 389.311 
-16.2657 -34.5892 398.502 
84.9135 -1.69692 392.407 
-20.8056 -7.99764 390.699 
-16.9856 -8.18484 394.433 
-16.0104 -8.14042 394.964 
78.4778 -37.011 398.331 
-15.2869 -8.08361 394.899 
72.0132 21.4892 378.674 
-14.5456 -8.18291 394.34 
-13.7022 -8.04307 394.583 
-12.1735 39.464 372.751 
75.762 6.93121 384.631 
-10.6019 -59.0319 404.952 
-18.5285 -5.47537 390.768 
79.8037 -3.5813 387.657 
-11.0292 -8.1619 393.327 
-10.6938 -8.07599 393.178 
13.3198 -7.66329 375.951 
22.7549 -55.5429 394.53 
14.3065 -7.56784 375.752 
58.3388 3.47897 376.944 
14.7815 -7.63158 375.909 
84.5542 -20.6651 395.883 
16.3019 -7.59264 375.637 
35.7985 -58.5684 396.993 
16.8383 -7.58396 375.641 
17.3198 -7.60526 375.536 
18.8092 -7.61082 375.481 
19.2741 -7.52859 375.272 
-14.1804 0.431258 378.672 
19.7736 -7.64297 375.432 
19.7824 -7.48152 375.264 
20.2263 -7.67362 375.442 
20.3451 -7.52377 375.27 
95.1035 19.9068 395.837 
-11.7187 -44.0226 380.684 
78.4321 -2.07518 386.471 
4.29387 37.8735 371.723 
-12.6127 6.47268 376.799 
22.3709 -7.57214 375.431 
8.31438 45.9649 371.81 
22.6263 -7.73759 375.42 
69.3047 -56.5275 401.682 
22.8429 -7.56157 375.214 
23.3001 -7.74886 375.6 
-23.0862 -43.5945 385.34 
-26.1141 3.51987 381.278 
82.2845 40.9248 387.635 
24.2782 -7.61474 375.426 
71.155 -40.373 397.569 
25.2439 -7.69783 375.583 
-6.20134 41.9412 372.037 
25.7893 -7.64964 375.537 
-19.182 25.4682 376.478 
-4.84142 -28.9452 391.602 
39.5638 -59.9531 397.305 
25.9552 -7.80864 376.304 
26.1094 -7.82321 377.006 
-6.62433 -45.1835 397.413 
27.1192 -7.96432 383.806 
27.5808 -8.03602 387.261 
31.9963 -8.0801 389.386 
-14.7171 17.963 376.086 
11.4364 -54.9244 396.267 
86.0211 -8.01101 394.963 
69.8483 -1.18973 383.668 
-9.71841 -45.9945 380.91 
7.05978 -46.1388 395.082 
86.4623 -8.20614 395.459 
86.7926 -8.06306 395.563 
88.8607 -6.63237 396.526 
88.7439 -61.4217 411.711 
87.4124 -8.10494 395.94 
93.4686 23.4645 394.917 
48.8194 1.80246 375.399 
72.4332 -0.204349 382.932 
87.7883 -8.04558 396.145 
88.3463 -8.07389 396.516 
79.2654 33.4604 384.583 
76.573 1.5257 385.367 
-20.6928 7.46317 379.156 
88.9487 -8.14772 396.941 
90.7716 -8.0441 398.125 
91.3406 -8.05484 398.657 
81.9486 -10.1965 390.879 
91.8634 -8.14344 399.037 
94.9862 31.0549 396.973 
-16.5712 -49.2293 381.492 
92.831 -8.04148 399.692 
92.9436 -8.29901 399.935 
93.3466 -8.07721 400.074 
79.3703 -39.7503 398.881 
-16.3251 -7.94468 394.194 
86.913 26.4033 390.007 
-14.1741 -7.9355 394.273 
59.2765 -43.2187 393.746 
5.3003 -44.027 394.582 
-13.7128 -7.98779 394.274 
-4.29899 -7.90729 388.953 
44.4375 -4.06644 377.125 
-1.74372 -7.66233 379.525 
-1.57349 -43.0306 395.676 
-1.64518 -7.52885 379.143 
93.9039 25.9818 395.646 
-0.705368 -7.55182 378.597 
-0.197944 -7.59629 378.509 
0.802324 -7.53015 378.237 
90.2483 14.4794 392.264 
2.33659 -7.47401 377.785 
77.2541 23.9489 380.023 
2.82514 -7.51951 377.703 
4.6463 -7.59944 377.459 
-4.58776 40.1226 372.495 
-15.2235 24.4758 375.554 
-3.27532 -54.857 404.143 
33.7804 -6.68833 384.799 
1.5214 -26.6512 397.292 
5.78535 -7.56026 377.091 
-25.8807 -11.4314 389.949 
7.33087 -7.62328 376.935 
74.3227 42.4404 381.496 
74.5721 10.1946 381.772 
-12.231 -1.47227 379.675 
80.1332 -32.6439 401.018 
7.84523 -7.52753 376.688 
36.7796 39.8919 371.631 
8.31857 -7.54463 376.727 
11.78 -7.53848 376.143 
16.0046 -7.69428 375.879 
87.8523 -4.07028 394.968 
55.3319 -54.632 397.524 
23.6235 -7.47033 375.232 
74.6041 -40.0448 397.358 
36.3125 -0.514821 374.15 
25.3301 -7.46882 375.156 
-11.3087 -17.1159 378.056 
7.99455 -4.56454 378.918 
26.3147 -7.52174 375.498 
21.8003 44.9406 372.117 
27.1399 -7.76991 379.573 
-25.5904 -47.1347 382.983 
-7.6721 -16.5749 378.629 
27.4445 -7.82636 382.331 
28.7316 -7.95988 388.854 
-1.74801 -46.0709 398.155 
32.1667 -7.90423 388.802 
-2.21255 43.888 371.757 
17.7897 -4.03381 375.19 
32.773 -7.90349 389.149 
92.1242 39.9064 395.215 
92.8372 7.44455 395.121 
12.2915 -55.0193 396.138 
95.403 -34.9888 410.023 
77.73 -8.00771 391.19 
-8.22645 -43.0832 380.771 
3.72123 -4.70219 377.158 
77.9911 -7.92351 389.75 
-13.0767 20.3863 374.747 
78.4058 -7.87957 389.201 
93.1315 -8.0151 399.777 
-26.2342 25.6783 376.177 
94.4074 -8.16905 400.905 
94.7815 -8.02021 401.155 
-7.23474 23.4302 372.226 
-27.6476 -7.84598 388.62 
-19.8535 -7.89263 390.931 
-5.27372 -7.89484 391.041 
87.608 -36.3671 404.859 
-3.84837 -7.82473 387.568 
78.8383 41.4697 385.002 
6.09858 -7.55479 376.818 
6.91887 -7.47572 376.832 
94.6392 0.486482 398.328 
12.0105 -7.59925 376.4 
75.8312 26.9291 378.738 
74.3116 -40.2606 397.285 
39.9088 -57.1295 396.456 
25.7536 -7.42381 375.248 
22.619 -4.06755 374.524 
41.8167 -54.2808 395.399 
-12.801 -36.7943 390.104 
3.15817 -3.39928 379.49 
3.93364 -16.1597 381.06 
27.3414 -7.63032 377.939 
27.5094 -7.64752 378.791 
27.8791 -7.69084 380.936 
50.1725 -2.96175 378.048 
28.4039 -7.77594 385.151 
32.7891 45.4574 372.109 
50.5316 -2.97038 379.15 
28.6278 -7.8075 386.715 
28.9901 -7.83204 387.93 
-7.24142 24.0746 371.801 
29.3086 -7.8444 388.542 
72.8658 -47.6466 400.529 
33.6557 -7.86594 389.609 
72.6703 -47.5263 400.227 
33.9076 -7.86093 389.361 
95.1258 -34.9715 409.82 
77.7126 -7.88494 390.55 
79.284 -7.85052 388.845 
86.6599 -7.98179 395.347 
88.7065 -6.42561 396.201 
91.0275 -7.98808 398.43 
-26.144 -7.68941 388.98 
-25.7102 -7.6266 389.026 
68.7014 44.3943 376.717 
82.3266 -52.5609 406.65 
-24.1664 -7.70371 389.013 
29.1294 38.0274 372.977 
-23.7585 -7.46784 388.817 
-23.6827 -7.52786 389.097 
82.37 -8.07257 390.464 
-22.7064 -7.49712 389.247 
-1.63109 0.116743 378.123 
-21.7325 -7.50502 389.685 
31.9091 -56.8793 396.176 
-20.2665 -7.68842 390.78 
-20.1614 -7.59301 391.048 
-19.8642 -7.73214 391.142 
65.9324 -0.75433 389.307 
70.8275 13.4572 380.584 
-6.71328 -7.49805 391.536 
38.2144 46.5311 371.802 
-23.8543 -50.8527 383.773 
-5.67509 -7.53039 390.645 
38.8444 46.4601 372.062 
-24.8279 -54.5245 378.647 
-5.36448 -7.78401 390.989 
-5.21707 -7.71128 390.64 
-4.80444 -7.76603 390.086 
-4.74312 -7.70068 389.55 
-4.06588 -7.66116 387.552 
27.2975 -53.0883 393.01 
-1.95766 -7.50567 379.684 
1.024 -7.53309 378.385 
9.15498 -7.43919 376.323 
9.64832 -7.42175 376.331 
18.9572 -7.41906 375.304 
24.781 -7.39463 375.21 
66.209 46.4352 375.136 
26.7608 -7.40048 375.253 
3.75346 -15.9694 380.743 
27.3047 -7.43174 375.649 
27.9953 -7.50036 376.741 
5.29288 -50.0241 395.687 
28.3627 -7.5418 378.823 
28.6936 -7.60127 381.81 
-24.522 -51.0158 380.091 
30.2514 -7.75324 389.443 
31.3356 -7.62462 389.157 
-24.5964 3.99071 380.802 
95.4121 -53.5715 415.02 
31.7555 -7.60793 389.002 
33.8299 -7.50883 389.097 
95.3322 -35.6506 410.131 
77.6172 -7.78772 391.175 
12.3378 -56.5432 396.784 
77.8141 -7.5965 389.562 
92.2123 38.3672 395.312 
92.779 6.94612 395.168 
79.2474 -7.58409 388.781 
80.9023 -7.61195 389.487 
7.22001 -56.7242 400.898 
84.9846 -25.1505 397.376 
81.8798 -7.56192 389.988 
-10.3553 0.858507 377.484 
82.2588 -7.51262 390.198 
82.471 -7.66347 390.442 
82.8142 -7.56891 390.59 
-25.668 -7.48482 388.754 
-25.2223 -7.47848 388.661 
-24.7268 -7.53064 388.679 
-24.1612 -7.50943 388.71 
-19.664 -7.68483 391.529 
-19.5197 -7.69294 391.943 
-7.65107 -26.8947 393.78 
-19.0176 -7.71246 392.937 
-10.2078 -56.0423 404.146 
-18.1617 -7.53048 393.518 
-16.6986 -7.5711 394.194 
84.2605 22.9562 387.646 
-16.3498 -7.59035 394.236 
-15.4655 -16.4062 392.395 
92.8684 -4.06245 398.552 
95.7418 -43.5236 412.974 
-16.0925 -7.56202 394.507 
11.7691 44.9394 372.107 
-17.0791 -3.35874 382.151 
71.6432 22.9788 380.45 
-14.7102 -7.5899 394.596 
86.7086 50.9523 392.092 
87.3697 45.9727 392.094 
-14.2166 -7.56498 394.236 
59.3149 -43.5512 393.666 
5.20075 -46.6769 394.317 
-13.7049 -7.56637 394.168 
-13.7378 -7.59468 394.461 
-4.17065 -43.0771 397.54 
-12.3189 -7.73243 393.954 
-14.0292 -45.3784 380.34 
23.7056 -6.57038 374.984 
-12.1708 -7.51898 393.637 
-14.2222 -45.5513 380.631 
23.8335 -6.4968 374.789 
91.4844 21.5342 393.418 
-10.3191 -7.72596 393.625 
-6.69244 -61.0314 406.479 
-9.66501 -7.55832 392.709 
-13.2274 37.4564 373.487 
74.7672 22.4615 377.479 
43.5942 -3.36206 375.335 
-8.22469 -7.52632 392.03 
-5.24375 -7.60343 390.173 
13.1187 45.6405 371.861 
-4.62395 -7.55703 388.726 
68.8721 -60.1128 402.577 
-4.00747 -7.59917 387.165 
-13.7341 46.9424 372.211 
94.3818 44.9388 397.564 
1.49985 -7.41563 377.814 
28.7651 -7.45702 379.923 
29.8594 -7.62754 388.611 
-24.8195 -50.9714 379.309 
30.078 -7.62765 388.616 
83.5078 -7.68423 391.499 
6.02893 -4.35374 379.091 
-17.1785 33.3719 374.206 
82.3224 -39.0545 400.092 
85.3878 -53.4713 408.461 
42.2782 1.83889 375.659 
6.27048 -6.97281 376.816 
84.8221 -7.56976 393.645 
74.1513 47.9341 381.813 
3.90042 -48.5808 395.319 
43.836 -1.04168 374.699 
85.3013 -7.57117 394.199 
-2.73006 -49.0604 400.574 
85.7871 -7.5591 394.651 
76.2729 -40.1538 397.333 
-5.80681 -45.1112 398.747 
61.9193 -0.558473 379.997 
86.8327 -7.59096 395.491 
88.9122 -61.2095 411.955 
87.3707 -7.63218 395.927 
53.1176 -0.306515 376.352 
87.7805 -7.55657 396.027 
-13.9119 -34.3318 398.391 
88.3013 -7.64176 396.424 
-18.0736 0.89815 379.301 
89.1444 -7.51782 396.806 
86.3559 47.9561 391.57 
89.3864 -7.59625 397.065 
89.8523 -7.62772 397.465 
20.1864 -2.7354 376.118 
92.5734 -7.83749 399.307 
-15.1984 -1.50688 380.202 
-20.048 -7.51961 391.514 
92.6527 38.0873 395.34 
93.3563 31.9407 395.571 
-17.8867 -7.52085 393.303 
87.0226 50.926 392.477 
-14.1954 -7.6196 393.84 
4.52954 -41.1738 396.948 
-8.85414 -7.59131 392.378 
-23.1654 41.4442 375.765 
-22.8095 10.457 375.791 
-6.3781 -7.46312 391.433 
4.5114 -6.39083 376.814 
-4.05852 -7.4844 386.852 
4.62449 -7.30169 377.408 
4.8422 -7.07646 377.171 
5.31988 -7.05926 377.039 
6.346 -7.12145 376.982 
73.3278 34.4243 377.538 
-12.7886 23.4434 374.504 
8.96861 -6.96258 376.262 
9.15492 -7.06929 376.32 
21.272 42.4211 372.015 
-4.6597 2.42633 374.073 
9.76981 -7.21872 376.397 
-4.27015 -3.61093 377.941 
87.2395 0.0109823 393.289 
10.1433 -7.24696 376.401 
12.2754 -7.1228 375.956 
63.3138 2.93371 378.553 
92.7928 37.9015 395.621 
82.3935 11.8648 387.892 
93.9878 0.430149 397.937 
12.796 -7.14113 375.93 
94.3699 -61.5068 415.408 
84.9353 -10.5335 393.631 
13.3153 -7.04658 375.702 
-5.0553 -41.8915 396.884 
93.0335 -0.100503 397.441 
3.32268 -39.5868 392.631 
13.7831 -7.04467 375.741 
3.15511 -39.431 392.361 
-5.77816 -9.55295 391.494 
13.7879 -7.21921 375.873 
14.3107 -7.05846 375.743 
82.7631 -41.5915 403.207 
2.76607 -45.6634 394.489 
15.2952 -7.05332 375.468 
15.802 -7.07809 375.511 
16.294 -7.07774 375.52 
-20.1775 34.437 375.509 
70.8301 10.9505 380.099 
34.8166 -2.11452 374.136 
16.3264 -6.98998 375.303 
16.8129 -7.07084 375.467 
17.3312 -7.10584 375.245 
-24.5721 -47.6126 385.264 
17.7494 -6.97018 375.251 
17.8835 -7.1883 375.439 
18.6879 -7.06619 375.452 
18.8898 -7.04259 375.228 
19.3144 -7.03734 375.18 
65.3223 4.4516 378.943 
21.7921 -7.06042 375.083 
68.924 -1.18477 387.077 
-6.19057 0.442386 374.712 
-26.2094 1.8991 381.582 
8.30687 42.432 372.11 
22.8007 -7.08093 375.069 
21.498 -8.90107 377.823 
23.3499 -7.05421 375.049 
55.4152 -53.9939 397.374 
23.8174 -7.05142 375.037 
24.2804 -7.06526 375.129 
24.8167 -7.04579 375.067 
48.7902 -1.04413 375.579 
66.3566 45.9024 375.024 
26.8264 -7.04806 375.188 
-7.66728 -17.6266 377.672 
27.2776 -6.99054 375.116 
64.8368 -58.5711 401.001 
-13.8476 -0.564802 379.461 
27.3971 -7.22264 375.502 
43.8589 -4.35784 379.449 
94.5921 0.122992 398.365 
28.2177 -7.19407 375.478 
28.6378 -7.29077 376.844 
28.806 -7.30661 377.662 
3.9653 -39.0992 396.255 
29.4369 -7.38505 381.717 
-8.68919 -50.5216 402.602 
29.962 -7.46245 385.718 
82.375 -59.5958 407.969 
30.1843 -7.49074 387.18 
17.8176 -51.4376 395.012 
35.496 -7.46743 388.796 
77.857 -7.38042 389.18 
82.8168 -7.44178 390.315 
-13.6511 -34.6012 397.31 
88.2724 -7.50827 396.232 
-11.2055 -52.5095 402.705 
-18.2311 0.982331 379.536 
65.8986 -57.5966 400.963 
-20.3152 -27.8453 400.023 
88.984 -7.59568 396.925 
9.40812 -55.6184 398.22 
-11.2087 -26.546 395.517 
89.734 -7.51128 397.302 
74.2297 45.4629 381.704 
75.029 12.754 381.37 
90.3492 -7.69826 397.906 
90.8699 -7.55233 398.066 
6.29737 -57.5807 401.166 
91.1672 -7.49518 398.246 
7.41557 -56.4918 400.315 
91.7329 -7.52778 398.74 
91.9756 -7.53924 398.951 
-11.6691 46.5042 371.837 
-16.1931 -1.10326 380.056 
1.52218 34.743 370.34 
94.7378 32.3725 396.726 
92.5701 -7.53822 399.293 
95.9583 -47.8141 414.409 
-15.1781 -1.17654 380.027 
56.3146 43.9215 371.052 
94.2943 -7.5932 400.616 
88.8561 -15.0789 399.062 
24.3347 -6.50368 374.781 
-8.23527 24.4856 371.305 
-26.4129 -7.39987 388.116 
-9.85943 -7.43636 392.924 
5.2872 -13.8364 379.335 
0.280086 -7.05034 378.137 
0.810712 -7.04817 378.02 
2.3348 -7.06938 377.736 
22.9166 -55.5352 394.321 
14.3688 -7.79992 375.884 
4.37339 -7.01954 377.296 
71.8473 29.4745 377.221 
-3.79502 1.4526 374.717 
12.3569 -6.98336 375.831 
-19.1087 -40.0076 381.064 
17.3096 -7.00593 375.442 
80.8486 -42.5384 402.096 
27.7943 -6.96346 375.172 
-17.0323 -1.27189 380.625 
3.65097 -42.5297 393.216 
-6.78968 -10.9208 391.928 
29.2741 -6.98909 375.504 
29.7041 -7.21262 378.295 
67.0898 -0.976282 390.636 
-7.64493 -43.5371 381.518 
29.936 -7.24303 379.89 
-7.2244 -2.07291 378.568 
58.2922 -49.565 395.569 
78.6042 -1.07514 386.736 
30.2925 -7.30326 383.049 
8.41781 -60.5615 400.312 
70.1482 -52.0116 400.768 
30.6056 -7.35264 385.639 
69.2194 11.502 381.045 
-24.2203 -9.5629 389.66 
30.8029 -7.37395 386.757 
91.5301 13.1556 393.378 
32.8735 -7.36997 389.415 
77.0922 -7.49258 392.979 
77.1484 -7.48733 392.703 
77.3973 -7.45818 391.174 
-23.6508 -9.55383 389.291 
71.2999 2.48592 381.689 
-8.75542 -56.5176 404.793 
80.1363 -7.34071 388.831 
93.2847 -39.0349 409.551 
-22.1881 -0.538613 381.065 
90.6505 -7.47201 397.757 
-27.6405 -7.25487 388.521 
-25.0064 -35.5989 396.928 
-24.6798 -35.5545 397.054 
-26.7437 -7.10577 388.537 
-25.2473 -35.541 396.627 
-26.6037 -6.98453 388.25 
-25.7179 -7.15439 388.593 
-25.1751 -7.13855 388.523 
-1.1398 30.9326 371.569 
77.745 -47.5334 402.763 
58.3146 -58.0327 399.144 
-23.7155 -7.17454 388.56 
76.8244 48.4189 384.099 
-23.2081 -7.0907 388.59 
-20.5371 -7.33308 390.362 
43.7975 41.1257 372.581 
-18.6431 -7.3643 392.024 
71.6293 22.9551 380.944 
-14.8786 -7.40823 394.362 
-22.0606 -52.9784 384.438 
-11.1406 -7.38941 393.36 
-6.67375 -11.0738 391.749 
3.93018 -42.5797 393.533 
29.3154 -6.94585 375.359 
95.451 -16.68 404.373 
-17.6589 -7.05395 393.571 
3.94024 -8.9547 377.848 
29.7488 -7.06657 376.175 
30.0936 -7.09805 377.851 
30.3031 -7.12236 379.145 
68.8366 47.9407 377.722 
30.6623 -7.18156 382.296 
31.1431 -7.24345 385.591 
-5.54647 -47.1249 400.159 
64.4594 -48.7544 397.412 
31.7892 -7.27981 387.526 
-3.90267 44.5604 371.996 
32.1155 -7.29214 388.183 
35.4459 -7.01478 388.737 
91.6386 -59.6969 413.296 
-18.8725 -37.3214 394.518 
36.1176 -7.30796 389.025 
-25.4526 31.154 370.944 
76.9974 -7.36261 391.934 
77.3781 -7.3361 390.523 
45.8021 -60.3839 397.979 
78.8393 -7.09104 388.51 
13.0132 46.6286 371.83 
84.1997 19.9632 388.137 
79.3263 -7.07414 388.534 
88.7552 1.95852 393.732 
84.0368 -7.37192 392.429 
85.0273 -7.40058 393.955 
86.7671 -7.38783 395.245 
-27.6194 -6.98771 388.225 
-8.15857 26.9112 371.255 
-26.2111 -6.98619 388.14 
-25.6837 -6.98896 388.295 
82.7037 27.9308 386.757 
-9.98794 -40.9629 380.991 
51.8203 3.75155 376.619 
-25.7489 6.41145 380.979 
40.9089 -48.6294 391.318 
-23.6259 -7.19606 388.881 
-22.1985 -7.02978 388.743 
-6.05726 -26.4684 392.689 
-20.7327 -7.03286 390.124 
86.7573 0.534838 392.773 
-20.5874 -7.138 390.484 
-21.7481 -36.1534 397.674 
93.4211 -28.5821 406.508 
-17.2039 -7.09915 393.726 
-22.6126 29.4514 370.49 
85.1357 -46.3762 406.298 
-17.0759 -7.20712 393.961 
-16.0328 -7.14361 394.425 
-13.0409 29.8437 373.447 
9.16494 -4.56455 378.919 
-7.59119 32.3407 372.315 
-27.1339 3.43157 381.631 
-13.6938 44.4837 372.667 
74.961 26.5098 378.056 
-15.243 -7.06152 394.239 
86.7417 51.3367 392.142 
87.3116 45.4384 392.058 
87.0041 25.4853 389.925 
-14.2298 -7.13305 394.113 
-13.7192 -7.13846 394.14 
-9.12703 -6.9944 392.268 
-8.22969 -7.07178 391.961 
-26.5483 25.7873 373.169 
-12.1526 -36.6272 394.711 
-3.14407 -45.5151 398.688 
-7.67496 -7.01637 391.682 
-6.65275 -6.97551 391.209 
38.287 45.9944 371.955 
-5.55438 -7.00118 390.189 
38.8269 46.0096 371.943 
-10.7037 -37.3396 393.542 
-24.7984 -54.0283 378.678 
-5.40599 -7.21721 390.024 
-2.07952 -6.94636 379.223 
-1.65473 -6.92207 378.672 
-17.229 -5.20626 391.158 
89.6274 46.2268 393.754 
2.1373 -6.94122 377.977 
15.5951 -6.87515 375.336 
22.8805 -6.85721 374.835 
-25.2426 11.9883 375.829 
30.7762 -6.9135 376.467 
81.7709 -59.0887 407.646 
-25.2873 -51.1086 378.667 
30.8545 -6.99609 378.074 
89.8777 10.4092 392.432 
31.1128 -7.03047 379.932 
-6.14753 -14.6116 389.591 
31.9421 -7.14437 386.087 
32.4643 -7.20007 389.098 
33.2848 -7.16387 389.11 
33.5278 -7.15089 389.394 
34.7937 -7.02646 389.094 
77.2897 -7.02569 389.525 
-25.3775 2.34533 381.399 
77.4101 -7.01414 389.085 
77.7917 -7.0145 388.652 
80.1267 -7.00403 388.828 
80.9723 -7.12517 389.482 
84.7313 -25.4762 397.235 
81.725 -7.01747 389.691 
82.2772 -7.0464 390.095 
48.3326 -50.5203 392.798 
-22.5404 -6.76123 388.993 
82.512 -7.22469 390.428 
82.844 -7.1179 390.584 
84.6581 -47.0439 406.251 
-9.72378 -27.0365 395.059 
83.2581 -7.06052 391.049 
-21.2299 -1.15019 381.153 
83.9539 -7.04176 392.454 
90.32 50.5602 394.928 
66.298 0.064085 380.735 
84.8012 -7.0703 393.602 
2.80325 -4.46056 377.435 
85.3351 -7.08514 394.145 
-17.6239 -48.4286 381.091 
-5.75555 2.44081 373.615 
-24.6965 -6.96484 388.164 
41.3155 -47.989 391.645 
36.2663 -56.9357 396.259 
-20.8912 -6.99433 389.81 
-20.2327 -7.02668 390.672 
50.2583 -56.5526 397.477 
66.1283 -0.75407 389.173 
-21.0752 -58.5523 383.596 
-16.5406 -7.18717 394.385 
-10.1585 -6.96573 392.605 
23.117 -6.8308 374.83 
82.8513 8.93755 388.421 
24.4323 -6.83073 374.826 
31.2076 -6.89758 378.494 
32.6759 -7.06569 387.719 
-20.173 -0.967726 380.628 
73.1808 -47.9873 400.791 
33.11 -7.07703 388.341 
22.3554 47.9125 372.047 
33.9384 -7.04239 388.837 
85.0343 -7.12462 393.988 
43.8069 -1.62122 374.9 
80.2298 -1.11033 388.691 
-22.7534 35.8705 376.418 
83.8119 18.4991 388.45 
86.1802 -6.97306 394.803 
83.8408 18.4062 388.256 
86.3759 -7.08634 394.937 
33.844 -48.2922 392.746 
87.3258 -7.04268 395.598 
88.2288 -7.01843 396.111 
-18.2619 1.28943 379.525 
89.1742 -7.11971 396.797 
89.7895 -7.06763 397.209 
66.8992 -56.4758 401 
90.6599 -7.06322 397.798 
66.7733 -56.5701 400.775 
32.7832 -57.0683 396.553 
90.8754 -7.03946 397.986 
81.4478 23.3422 385.393 
91.7895 -7.02872 398.619 
7.31583 -54.2112 398.15 
92.0239 -7.26889 398.869 
-11.7295 46.9659 371.765 
-16.2567 -0.736265 379.984 
92.3791 -7.04103 399.138 
95.0247 32.1081 396.901 
92.8702 -7.10205 399.458 
2.31802 -37.0473 391.156 
85.2295 -5.55385 393.739 
-27.2012 2.95728 381.593 
38.229 -5.41065 378.563 
93.2719 -7.02717 399.631 
-23.317 -6.91243 388.283 
-21.3583 -6.98602 389.346 
75.3267 16.9181 379.095 
-5.17658 6.96731 376.523 
-18.5303 -6.99876 393.133 
20.1626 46.1529 371.783 
72.0509 20.4607 378.662 
-14.7223 -6.96122 394.132 
-22.129 -52.5594 384.641 
-11.2331 -6.95139 393.054 
-22.3177 -52.62 384.219 
-10.9948 -6.90015 392.756 
-2.33117 -6.81366 379.74 
-2.1065 -6.64932 379.055 
-1.74071 -6.79811 378.874 
-0.610312 -6.50026 378.208 
-0.189396 -6.56827 378.212 
44.822 -53.6792 395.466 
-15.1518 -9.48458 394.749 
1.34664 -6.50295 377.722 
-15.2495 -13.0349 395.076 
2.7496 -6.54369 377.415 
93.8246 -52.0437 413.621 
2.90189 -6.57635 377.341 
20.8283 -53.5431 394.099 
4.29337 -6.55012 377.137 
4.84091 -6.56279 377.069 
8.31323 -6.54384 376.486 
8.93044 -6.61699 376.138 
10.3017 -6.53227 376.074 
10.8161 -6.65917 375.704 
40.2876 -3.00962 374.68 
-24.6812 -4.42049 384.904 
10.8455 -6.46428 376.087 
12.1009 -6.74519 375.924 
59.7852 3.43358 377.415 
12.3131 -6.52118 375.688 
14.2819 -6.56961 375.541 
87.9945 46.2346 392.88 
14.758 -6.53412 375.548 
76.4519 -0.0973232 384.894 
14.9486 -6.51109 375.275 
87.7216 -58.0467 410.615 
15.6948 -6.53832 375.41 
15.9115 -6.50052 375.341 
73.0163 10.8138 380.925 
36.7082 -7.05434 389.496 
33.2937 -48.5759 392.62 
17.3288 -6.65695 375.412 
17.7894 -6.52245 375.254 
-6.88194 -25.205 393.006 
18.2923 -6.52105 375.174 
18.6187 -6.68279 375.384 
18.8267 -6.51564 375.137 
64.1 47.7728 373.839 
72.2468 6.4181 381.293 
88.3492 -58.0116 411.104 
19.3502 -6.5284 375.092 
-21.6995 -7.20907 389.584 
19.8132 -6.51889 375.049 
34.2908 -5.05424 374.705 
81.5036 -23.0636 398.141 
-10.7239 -2.02847 380.534 
-4.21827 35.4394 372.194 
20.8211 -6.52292 375.018 
21.3444 -6.52348 375.038 
88.7117 16.9297 391.253 
21.7751 -6.623 374.982 
22.2993 -6.5561 374.959 
14.1186 -3.91312 377.66 
2.28558 -2.70709 382.059 
82.7655 6.49336 388.73 
24.2432 -6.57982 375.02 
24.8794 -6.5651 374.914 
-11.6385 -49.8551 386.061 
36.8298 -0.514698 374.069 
25.7714 -6.53075 374.976 
27.2927 -6.49769 374.84 
-7.41024 16.2818 375.062 
27.8139 -6.58202 374.954 
18.2478 -3.06366 377.525 
3.57384 -9.55147 378.372 
29.7628 -6.50984 375.08 
-12.6794 -31.1815 396.738 
-7.11996 -4.67318 387.937 
3.79325 -9.54666 378.181 
29.9525 -6.73609 375.417 
-7.04246 -4.74251 387.667 
33.3148 39.5122 371.184 
81.2428 4.93613 388.221 
30.2896 -6.50308 375.193 
33.3621 39.2743 371.453 
30.4883 -6.73802 375.525 
77.2978 -52.1235 403.919 
37.2416 -6.9099 389.164 
82.062 -6.99511 389.853 
82.6524 -6.9486 390.315 
72.2722 -1.04917 383.19 
87.6622 -6.96181 395.738 
90.0098 -7.13043 397.394 
-16.7139 43.9621 373.607 
94.8951 -7.06029 401.016 
84.483 41.525 389.407 
84.8628 9.94611 389.43 
48.8051 -57.0311 397.156 
79.8695 -37.5306 398.419 
95.2814 -7.01557 401.268 
-24.4326 -6.84972 387.819 
-21.8142 -6.86534 388.704 
-19.6996 -2.97504 382.232 
16.271 42.9617 372.173 
-20.183 -6.90474 390.934 
17.829 -54.4684 394.775 
50.4326 -56.5659 397.301 
66.4987 -0.526762 382.813 
71.9897 20.6509 378.9 
-14.5257 -6.90009 393.802 
87.0091 51.3589 392.416 
-14.1281 -6.90667 393.726 
77.832 -36.5544 399.07 
-5.96406 -6.90079 390.711 
-5.17444 -6.87203 389.082 
38.2022 -48.0118 392 
37.8088 -0.504629 374.006 
-2.49206 -6.70963 379.887 
82.8526 44.9695 388.495 
47.2795 -48.4635 391.791 
83.7832 -13.0221 392.79 
-21.1446 -2.41482 381.786 
90.3025 20.9627 392.507 
-2.38296 -6.7028 379.501 
-2.05911 -6.46328 378.734 
86.6613 33.3676 390.255 
10.5158 -6.63855 375.863 
-18.2454 21.425 376.983 
15.1726 -6.5059 375.313 
17.7058 -6.5952 375.398 
61.8703 42.8686 371.506 
30.8113 -6.45088 375.177 
33.9639 -6.85521 388.13 
34.8386 -6.87729 389.38 
77.0439 -6.89701 390.497 
77.4679 -6.86656 388.773 
77.975 -6.85835 388.308 
-18.2613 -49.7481 385.512 
44.4621 -1.12678 375.01 
74.7328 33.9309 378.567 
-13.0713 19.5515 374.821 
78.3519 -6.85794 388.284 
83.0539 -6.9044 390.915 
-12.6411 33.4179 373.253 
-15.35 -16.4006 392.26 
90.1689 -7.01819 397.358 
85.6368 -38.009 403.784 
79.6988 -42.0288 399.78 
94.6628 -6.98804 400.747 
-27.6236 -6.7489 388.284 
-26.0977 -6.74902 388.291 
-25.5159 -6.73934 387.734 
-0.670356 -13.5569 380.21 
-23.6661 -6.45656 387.751 
-25.2147 -23.4712 372.662 
-23.6328 -6.74568 388.098 
-17.1947 28.541 373.324 
85.3194 -43.0675 405.508 
93.4585 -41.0533 410.415 
-22.3193 -6.76041 388.946 
76.2232 -45.9556 401.108 
-5.17326 1.46349 374.078 
-21.2023 -6.76991 389.493 
57.8485 -58.0509 398.694 
-20.5732 -6.77885 390.007 
-19.1634 -6.54053 391.034 
78.0192 -9.98498 399.994 
48.1673 0.852495 374.836 
-19.1632 -6.80314 391.404 
-18.2364 -6.8265 392.748 
0.789093 -6.48225 377.825 
