ply
format ascii 1.0
comment Created by Open3D
element vertex 1959
property double x
property double y
property double z
end_header
13.0609 -37.5935 372.697
25.5955 36.8057 370.078
60.3694 20.7998 368.022
75.6496 -29.0793 364.242
7.23445 -32.0821 370.828
-18.7217 -26.0849 356.184
-19.1404 4.35655 356.292
21.6909 35.3859 369.124
80.7354 -18.0962 360.754
79.3664 -23.2584 360.92
69.0645 -35.4684 370.093
6.36409 -30.7033 369.501
3.02131 18.3916 361.432
13.9049 -38.198 372.72
3.87747 -27.6504 366.651
-1.41732 -29.1986 361.434
-2.3825 32.4058 361.032
-3.29248 -4.11473 359.928
74.1989 -30.1169 366.251
65.2315 -52.0953 366.65
1.2375 15.3404 360.94
-2.77058 2.87523 360.162
14.1753 13.4376 367.924
68.729 28.3827 367.271
57.7219 -23.13 372.677
-3.30969 -4.55187 359.904
82.2248 36.9624 366.915
57.8 -22.9032 372.487
-3.20724 -4.64043 360.059
-3.7789 27.9207 360.322
82.3877 -11.0903 360.378
82.5072 1.91903 364.044
45.6301 -23.6542 372.532
8.38127 -33.1918 371.577
74.7633 24.8687 368.096
-18.55 -26.6137 356.536
-19.1832 4.8624 356.558
40.3575 -46.8193 371.493
33.8232 38.9246 368.915
85.4015 23.3875 364.92
82.7998 -9.08476 360.295
32.7603 -9.05449 370.365
59.756 34.4328 365.871
56.2988 -40.6383 371.432
81.8285 6.95358 365.856
91.7392 -37.0698 355.466
40.7262 40.9302 367.623
77.2321 13.3902 368.793
11.1873 -36.0627 372.26
54.2458 36.9487 365.35
2.26907 -25.1422 364.171
-4.76337 38.4014 360.602
5.77388 45.8595 363.104
82.3632 -11.6097 360.361
14.3656 -38.6447 372.618
68.1765 -41.4747 369.033
82.9238 -4.96205 360.883
37.1941 -54.593 369.713
0.225879 -21.1276 361.723
19.739 -42.0743 372.246
51.2914 37.7914 365.565
11.9695 1.22884 368.758
-2.77943 -17.5485 360.09
-3.26525 15.8665 360.173
82.5851 -9.57348 360.586
82.9368 -4.54531 360.867
12.3371 -41.6709 371.832
60.6995 -41.6588 370.87
66.4944 -26.2782 372.061
30.7067 -46.0597 371.868
-3.10747 -2.42398 360.056
-3.86628 29.9165 360.441
74.4136 -29.6437 365.898
91.7652 18.3654 356.869
6.71887 -31.6153 370.367
74.2985 5.92571 370.136
79.9302 12.0306 367.964
56.0062 36.0461 365.494
88.1967 -17.0876 356.63
77.3199 17.8701 368.924
-18.2312 -23.5718 356.348
-18.7779 8.98918 356.488
7.60392 -32.4289 370.897
80.3356 35.7834 367.162
75.9326 44.2809 366.054
-1.16849 9.40507 360.601
80.9405 9.0509 366.999
80.2581 40.385 366.57
39.7586 -47.0841 371.715
82.8321 1.83968 362.856
85.3035 -13.5731 357.9
18.8479 -41.5334 372.262
89.4303 -3.35435 356.467
89.6566 -35.1346 356.112
-3.27697 -5.5941 359.894
33.8112 -46.6577 372.119
31.8796 24.0527 369.444
58.3076 35.3946 366.086
94.2314 -3.70781 355.643
26.7799 37.414 369.654
-0.76427 10.89 360.714
81.1332 8.94994 367.027
-2.92286 0.900092 359.84
11.7308 28.6795 364.515
43.4321 39.0453 367.039
46.2522 38.9301 366.106
82.5606 1.99757 363.657
82.7459 -10.0806 360.271
75.7181 33.8494 367.117
35.2147 -5.59833 369.899
64.3633 31.5667 366.384
68.2683 28.8899 367.19
36.2766 -50.5737 370.868
65.0802 31.0624 366.42
11.877 -18.9998 371.618
12.2938 -44.0819 371.798
-3.28455 -1.62975 360.094
-3.84256 30.8793 360.401
78.5275 -22.95 362.153
79.5352 -20.6776 361.535
46.2202 38.9061 365.969
12.2517 -37.0324 372.29
-3.23953 -1.47605 359.955
45.002 47.458 366.575
22.7258 35.9057 369.257
18.2617 11.9024 370.178
19.135 -53.1448 370.037
79.2955 13.8889 368.419
51.3031 -33.5581 373.075
82.5141 2.22174 364.074
62.2393 -42.1118 370.781
-1.4601 -16.0129 360.458
-1.96211 16.4068 360.354
19.7769 -6.05004 371.313
20.3884 -45.1611 371.397
75.8006 -28.0477 364.258
57.7046 37.9519 365.404
22.054 19.5791 369.999
-2.87385 -10.0475 359.944
65.7619 -38.6161 370.787
82.9315 -2.80085 361.497
70.1775 26.9706 367.371
71.3814 -38.0476 367.391
1.81768 16.2028 360.996
14.7507 -24.2592 371.919
72.2828 -36.5442 366.715
86.4391 22.9815 363.827
55.6999 36.443 365.598
61.2431 33.8812 366.319
78.0415 -23.7957 362.505
12.9601 29.7297 365.012
24.4707 -54.7338 369.347
69.3959 -52.1718 364.458
74.4889 -25.9752 367.771
55.7872 -43.9842 370.919
80.0866 -19.5868 361.148
79.6776 -21.608 361.186
80.0291 -19.424 361.504
41.2863 39.3886 367.396
6.38909 -31.0753 370.1
80.6397 10.4026 367.548
67.7508 37.3507 366.042
82.5678 -9.88506 360.565
4.71919 21.3711 361.967
-1.48007 -15.7234 360.459
-1.57987 15.8786 360.448
67.8386 29.3763 367.108
81.7554 -27.127 358.753
5.76116 -45.1203 370.218
26.839 23.3844 369.858
-0.182305 12.0538 361.025
89.4157 -36.6202 355.977
82.9298 -2.30012 361.49
12.2349 -42.0593 372.17
72.5572 0.362916 371.179
0.599303 -21.6346 361.964
38.215 -47.0465 371.804
35.2897 11.8698 369.074
34.818 43.5131 369.06
36.2301 -55.5893 369.282
66.4126 -37.7607 370.456
-2.29657 5.86218 360.25
47.2242 8.37732 368.225
-9.21512 1.38995 358.711
90.1555 -21.1131 356.212
81.3587 -16.0311 360.337
58.2166 35.3605 365.865
79.2317 -43.1315 358.7
42.2238 39.3737 367.178
85.7788 6.35086 360.313
16.3248 37.4413 366.125
5.56102 -14.4495 365.491
80.9603 -28.7844 358.973
79.5775 -45.0413 358.567
53.2615 37.4379 365.418
54.7248 36.6094 366.065
-1.76603 7.90599 360.345
78.8181 14.5994 368.483
57.7829 -29.5815 372.82
11.6248 -12.5043 370.432
12.2265 -50.578 370.232
-3.22361 -1.0068 360.032
-3.72201 30.4016 360.446
78.4343 -23.0607 362.001
57.2574 35.8749 365.855
29.2597 -31.6123 372.615
82.0421 -12.9811 360.559
41.7016 -47.0401 371.702
51.8365 -34.7258 372.391
82.7781 -19.0574 358.815
13.3032 30.4305 365.094
81.2778 8.94467 366.811
80.7134 39.4224 366.688
44.7646 11.453 367.962
73.2312 23.8648 368.188
57.7342 -29.6557 373.062
53.2348 -48.5854 370.159
-3.29574 -1.13472 359.9
-2.73671 3.42796 360.122
52.7244 -34.0883 373.182
22.6928 -43.6105 372.212
87.7049 7.95274 358.734
28.0434 -45.2803 371.953
89.2166 -20.6194 356.206
43.1929 18.9207 367.166
77.6966 27.7818 368.006
-2.78695 -11.0981 360.083
-3.28673 21.3738 360.333
37.7367 -47.1009 371.743
74.6068 -29.4066 366.1
73.7864 35.8721 366.475
28.7926 -45.6497 371.815
61.7083 36.4344 366.13
87.8231 2.35307 357.883
12.5502 -37.2318 372.351
81.5711 -15.0292 360.574
4.52146 -28.4932 367.4
82.4004 3.90919 364.374
23.3078 35.9869 369.565
2.56174 -25.5568 364.42
0.117535 13.4835 360.481
73.02 -31.5483 367.659
4.64482 -29.0649 367.765
79.0355 14.3722 368.545
26.6523 -45.09 371.838
-11.7888 32.9151 358.831
64.7294 -10.1148 371.659
-11.1565 0.350591 358.567
82.1842 5.37417 365.19
6.81877 -31.5363 370.569
82.5689 2.39579 363.704
80.655 -18.0312 361.019
79.2331 -23.1276 361.322
5.63314 22.3643 361.993
89.7251 -40.0709 356.123
89.2806 -8.55619 356.437
9.31226 -26.0832 371.098
40.3407 -47.1356 371.417
33.3294 -39.4914 373.072
89.679 11.3853 357.636
49.7031 38.3003 365.428
-14.1784 -27.1538 356.712
-1.24007 -29.0606 361.654
92.2375 -22.0668 355.679
39.7518 39.4466 368.083
21.3532 -42.8044 372.674
71.7489 -32.0343 368.786
68.7287 35.933 366.233
-0.132306 12.254 361.03
78.2404 16.444 368.647
9.2302 -39.5511 371.798
89.507 37.2064 362.986
33.0449 -46.4651 372.118
46.7685 38.927 366.096
-6.25116 -4.07671 359.213
-5.93673 -38.1129 359.453
42.2432 3.37911 368.79
60.0191 34.4293 365.886
-3.28957 -7.07962 359.896
67.6087 29.3915 366.872
21.82 26.4182 370.086
-3.12969 -0.65087 360.062
-3.77567 32.0467 360.368
82.8615 1.41736 362.851
37.2074 -47.0993 371.672
82.5871 2.9883 364.084
78.6636 15.4284 368.626
-2.74946 -11.0032 359.976
35.6948 39.0532 369.035
-2.8376 -10.5207 359.944
-14.2658 -17.5917 356.837
83.1948 -2.60343 361.232
-8.82558 -23.174 358.386
89.2317 31.8918 362.707
-3.07446 -7.02909 360.083
-3.88132 24.3764 360.331
82.0888 35.4087 367.179
12.7416 29.9217 364.786
54.733 36.7873 365.706
-7.29394 37.3586 359.931
-6.75464 6.97444 359.529
60.0697 42.9188 364.962
81.6548 24.8667 367.56
-13.7428 5.44884 357.856
-13.2049 -27.2343 357.552
15.717 -51.0733 370.291
76.6908 18.9357 369.158
83.1813 -5.0893 360.739
82.9369 -7.21751 360.361
0.235343 33.9439 361.391
71.8762 -33.0873 368.383
81.7267 7.4592 366.215
81.3791 40.0999 366.456
-1.44376 45.0289 361.37
-0.299962 -20.1039 361.36
6.33046 -31.6463 370.098
27.3713 -43.1012 372.622
72.4024 -32.2319 367.867
14.7523 -38.8413 371.959
75.592 -32.5738 363.212
29.1121 -43.1071 372.444
73.7258 19.9255 368.74
81.652 7.3435 366.77
81.238 39.9112 366.715
7.05641 39.2181 362.992
71.2753 -33.5297 369.066
82.2364 -13.0768 360.225
40.7435 -47.0921 371.697
4.23922 20.932 361.888
14.0281 -41.6488 371.881
-1.41763 -16.5217 360.449
-1.77425 14.9072 360.377
19.8039 -14.525 371.433
33.7356 -29.0743 372.233
74.6731 21.9016 368.378
36.7687 -47.0443 371.719
73.3067 16.9012 369.073
11.722 37.4359 364.24
63.2505 -4.09208 370.911
8.78817 -34.0649 371.705
75.3795 -28.624 364.875
71.4081 40.667 366.078
-2.17592 6.03531 359.947
90.3052 -21.0834 355.829
2.68333 18.4003 361.553
18.9085 -41.4936 372.645
13.1936 -55.0744 368.83
82.7818 2.4232 363.279
79.6983 -21.097 361.216
80.0751 -20.1364 361.11
68.8795 -35.8879 369.926
64.4337 31.8759 366.438
73.1509 -31.5744 367.27
72.2383 31.4011 367.07
67.2351 29.8427 367.102
77.6547 -25.1125 362.669
-0.295145 12.4082 360.773
82.7228 2.883 363.735
28.6776 30.9484 369.744
-0.873035 -18.5117 360.932
-1.26731 11.904 360.618
72.2431 24.9482 367.908
-13.9236 -23.2322 356.933
-3.28167 -0.125183 359.888
-3.28089 -7.56938 359.894
78.7592 -23.0827 361.78
90.2915 -21.5642 355.921
83.1143 -1.61684 361.712
0.184926 42.5295 362.078
39.2723 -47.0642 371.707
1.02177 -22.6371 362.443
65.6282 30.9612 367.025
51.7597 -45.3157 370.978
57.1746 -43.5647 371.163
8.31872 -33.6253 371.575
82.0826 6.47412 365.646
60.7363 -15.5421 372.114
42.1937 -14.0097 371.05
20.2478 -48.0454 371.177
74.7743 21.639 368.424
-0.930661 10.2849 360.368
49.2058 18.9175 367.351
62.2303 33.3655 366.254
17.1234 32.8634 366.94
39.1206 26.7681 368.085
81.7577 -15.0868 360.239
63.2676 -45.6225 369.468
-1.33275 9.37975 360.333
73.2529 45.4992 365.613
28.345 -45.4023 372.532
0.78815 -35.5671 364.667
32.7564 -15.1858 370.487
83.1752 -5.57696 360.726
17.7471 6.41963 370.621
77.735 24.9077 368.272
3.92913 20.0112 362.054
77.9192 -24.5778 362.403
-1.31956 41.4874 361.426
-0.482928 -23.4277 361.474
66.4109 30.4374 367.043
9.17966 -44.6032 371.606
57.1546 -22.1437 372.604
-2.79088 2.96108 359.958
51.7023 37.9014 365.3
78.0503 -23.9993 362.546
43.7448 -49.0975 370.883
73.6598 -31.0704 366.657
72.6802 31.9955 366.962
57.2544 35.7948 366.031
43.1589 -46.9913 371.691
61.218 35.9643 365.913
78.3846 2.46476 368.365
69.0866 -39.3868 369.025
24.6181 -44.2352 373.132
93.2036 22.4134 356.658
56.3062 -44.1085 370.804
75.0997 -29.1047 365.221
26.1594 37.3143 369.458
26.6549 37.4002 369.369
81.1269 -17.0579 360.598
5.94256 27.4679 362.518
18.7475 -21.146 372.144
79.2501 14.3974 368.413
83.0968 -2.06688 361.563
43.1848 24.7932 366.924
78.7654 -38.1212 359.394
2.55906 17.9676 361.546
85.7876 -10.1098 357.915
10.1754 -35.5257 372.146
65.3181 39.2843 365.479
66.8239 -53.7049 365.41
-1.28962 9.87208 360.394
2.13473 -25.0129 363.9
73.8412 -44.6154 362.305
87.2172 -4.05539 357.658
32.2286 -46.5854 371.717
66.7411 45.9116 365.206
26.8477 -45.1507 372.159
1.2915 15.9017 361.124
52.7919 -31.6404 373.09
89.1478 20.448 359.722
12.7187 -37.6439 372.753
-2.27751 -14.0675 360.245
-2.77705 17.37 360.318
-13.917 -17.6211 356.765
-3.15581 0.410044 359.879
3.22344 19.4375 361.644
60.2177 -42.1748 370.855
29.188 -42.6058 372.242
81.9248 6.0777 365.494
13.6589 41.9231 364.436
82.4799 3.38013 363.923
77.2011 18.4168 369.17
0.628704 14.9112 360.93
-8.21611 -5.07292 358.682
-7.72923 -40.0728 358.732
56.9993 -37.0398 371.975
82.7025 -11.0691 360.234
89.1714 33.9426 363.239
1.89361 -24.6086 363.574
48.7754 -24.5677 372.409
4.2231 -28.5944 367.267
25.3886 34.8042 370.051
-6.80733 -8.50522 359.075
-6.31109 -40.1018 359.346
82.8323 2.87119 363.302
-2.44184 -12.6102 359.951
65.2539 -39.1423 370.813
-2.9728 1.249 359.852
35.2865 -47.5705 371.734
40.6182 -28.1062 372.658
65.3956 31.065 367.051
79.8042 -20.4935 360.94
80.2636 -20.5696 360.74
74.2648 -40.1215 362.814
-1.87402 -0.58238 360.778
-2.28113 28.3889 360.822
73.7699 23.3741 368.293
68.7433 41.9353 365.683
23.6456 -44.1071 372.197
83.222 -1.12007 361.727
76.2027 34.8853 367.053
46.7668 38.9126 365.95
54.7785 -16.6243 372.055
-6.60325 27.404 359.963
-5.71839 -38.0996 359.677
73.4439 -31.1645 366.84
72.1319 31.994 366.96
23.7697 36.4597 369.584
91.227 17.9253 357.317
83.0806 -6.61511 360.623
-8.52296 -41.6073 358.505
-9.1408 -9.21505 358.59
-9.72771 23.4713 358.987
74.2325 22.8786 368.352
25.5452 1.61351 371.085
62.188 -41.0167 371.132
32.8536 -14.0033 370.426
83.2567 -6.57552 360.346
89.8121 24.432 359.857
70.5514 -45.0755 366.106
21.352 -43.1045 372.294
29.6915 38.3866 369.383
1.42579 -23.6311 363.061
80.6962 -18.561 360.671
78.3987 -23.5975 361.929
1.71867 16.9127 361.208
86.1897 22.4157 364.245
82.2188 -13.6174 359.955
7.03584 -45.6734 370.379
20.3447 34.9697 368.555
7.7319 25.4061 362.733
82.6993 -14.0527 359.653
78.8663 14.9562 368.47
-0.76385 11.3738 360.636
20.2944 -42.5793 372.267
43.6974 39.4281 366.817
12.0745 -37.0266 373.054
-1.77857 8.38542 360.246
82.0404 5.87624 365.558
-16.2711 -1.07885 357.273
10.2019 27.9148 363.706
25.2504 34.4396 369.779
-6.94357 -7.25654 358.999
80.3061 -19.592 360.821
79.854 -21.5933 360.939
83.0348 -6.29831 361.076
89.8002 21.899 359.296
77.3544 -25.6565 362.815
-1.58235 24.5039 361.014
55.2179 23.8634 366.904
27.8193 37.8064 369.607
-7.89262 0.857627 358.743
-7.23771 -31.6024 358.792
20.9218 -55.9105 369.01
69.8535 -48.6764 365.426
68.2237 47.0245 365.148
5.14513 21.9448 361.926
69.7532 -35.1374 369.488
10.7429 -36.1122 372.268
12.867 -40.0395 372.563
39.7415 -41.0711 372.753
63.7413 32.4484 366.455
69.4463 27.6929 367.503
-1.80959 43.9836 361.458
-0.665776 -19.0931 361.085
27.7308 -45.5353 372.213
10.0127 -35.0805 371.959
58.697 22.867 367.308
83.0442 -0.618847 362.076
32.7906 -46.6322 371.806
11.0647 18.8518 364.431
22.6912 -34.6165 372.325
-3.3863 -2.21884 359.908
9.79057 -35.1042 372.061
73.2482 -31.111 367.246
72.285 31.9063 367.099
0.172648 13.8775 360.858
-0.290388 16.8991 360.739
59.626 34.9258 365.914
21.7234 26.4339 369.764
-3.35332 -0.564025 359.904
61.3495 -41.585 370.77
47.2437 26.7931 367.03
22.4133 -43.497 372.564
-3.731 -50.1004 362.7
40.8855 48.1482 367.452
55.7451 0.385775 370.079
73.7206 19.4058 368.861
81.5452 7.82071 366.518
81.2288 39.3822 366.705
69.5569 8.28539 370.041
47.744 38.9135 365.8
16.5845 -45.2712 371.456
58.7007 13.3449 368.604
59.7638 -49.5942 368.82
83.7341 -40.5828 357.249
70.2585 27.3879 367.432
71.391 -37.5402 367.295
13.7392 30.8813 365.352
70.6995 -34.5396 369.124
0.767956 14.9017 361.121
72.6191 -48.582 362.631
-3.24199 0.930011 359.855
35.7568 -47.0573 371.712
55.1651 36.8783 365.715
51.5554 38.1752 365.522
70.2044 20.9272 368.32
43.2329 39.4388 367.074
-1.25613 44.8605 361.695
35.7298 34.4333 369.115
36.2061 2.38943 369.211
-0.0824269 -20.2793 361.577
66.6505 30.3196 367.083
83.0624 -6.98815 360.544
49.2176 37.4118 365.681
32.4193 -46.4899 371.328
63.2276 -40.5698 370.734
19.1896 -42.0706 372.662
37.5792 -47.0821 372.106
54.7814 -39.6139 371.958
76.8713 -17.105 366.278
20.1515 34.8743 368.445
78.8043 15.4031 368.419
50.6845 16.3142 368.021
22.2398 35.9381 369.169
53.6627 -18.1302 371.839
67.7466 -37.1364 370.277
56.2438 -9.0928 371.141
56.5802 -41.5352 371.479
10.7015 28.4254 363.849
52.7347 -48.6111 370.248
91.8112 -12.583 355.427
-16.8254 -31.0498 356.441
28.2216 -45.5945 371.898
83.2196 -7.58079 360.23
-2.73338 -12.1066 360.047
-3.27608 18.3682 360.318
7.20039 -32.5522 370.838
82.2523 -13.5722 360.211
7.24767 -45.5611 370.717
63.4466 25.2523 367.541
8.18226 25.8894 362.914
27.1127 10.3806 370.616
28.479 -49.3152 370.916
36.8671 39.4712 368.378
1.83862 -32.0708 365.154
79.0811 -22.5674 361.596
5.19883 -30.0597 368.781
17.7659 39.9593 366.599
40.1712 -42.2619 371.912
81.7376 -15.555 360.249
-3.17375 -7.62647 360.031
-3.82818 24.9218 360.338
0.418893 -21.625 362.029
83.3396 -6.07265 360.346
50.2683 38.373 365.648
75.2831 -29.1002 364.801
2.2825 -25.6139 364.244
32.2062 -50.1471 370.92
80.7348 43.0859 366.527
81.3139 9.43044 366.824
0.397732 13.9839 361.026
-0.0823371 16.7114 361.183
11.3421 -36.6329 372.553
14.7832 18.2983 367.603
35.259 -47.0369 371.78
22.7058 -36.6246 372.6
57.7382 -30.552 372.754
-3.22363 0.0528494 360.032
-3.80117 31.4088 360.422
51.5576 -29.384 373.11
82.4391 4.29316 364.411
23.0855 -30.2372 372.587
51.7916 -45.631 370.93
31.7422 -46.5865 371.778
-3.65581 -46.0733 362.092
12.1325 -37.1542 372.721
22.513 -43.4901 372.505
87.8896 7.74762 358.44
45.1735 15.9216 367.328
70.8068 26.8633 367.54
71.5787 -38.1536 367.649
44.1927 39.4128 366.674
1.65187 -24.537 363.335
31.7199 38.8688 369.226
6.99531 -31.9584 370.405
16.7254 32.9365 366.826
33.7147 42.3997 368.845
11.2479 -53.114 369.305
82.5888 3.98742 364.144
48.8136 -55.4499 368.327
5.18854 22.3477 361.956
62.1866 45.0078 364.872
-8.8221 27.4253 359.422
82.5198 -11.2836 360.573
52.261 -45.5757 371.254
-2.17607 6.18529 359.971
3.83081 -28.1156 366.721
78.6297 -38.1129 359.547
82.192 -14.0467 360.2
83.2728 -0.594348 361.725
71.7072 40.7824 366.052
32.7037 -7.54996 370.232
83.0742 -0.00813798 362.168
56.2201 -44.1 371.125
60.7263 34.4025 366.229
82.5086 -11.382 360.524
-13.2809 15.3855 358.267
81.7215 7.95342 366.231
81.078 39.4925 366.472
1.17368 -23.6168 362.842
59.3852 -14.9933 372.075
83.3005 -0.118097 361.777
78.7258 -40.0974 359.213
53.7157 37.4415 364.951
11.7235 29.3681 364.289
59.8503 34.8292 366.094
82.7377 44.5054 365.955
59.9241 -44.1619 370.437
83.0738 10.9927 365.649
-1.93022 7.49494 360.614
-1.48221 -24.8956 360.98
-2.36647 36.3886 360.934
-0.282151 12.8962 360.812
85.9933 41.0644 366.005
74.2373 23.8766 368.231
-3.27078 1.39805 359.732
-2.67415 -31.3017 359.905
43.2364 3.88554 368.838
17.3006 -48.6771 370.816
78.6879 -23.5714 361.731
22.1872 -24.0529 372.1
11.196 -36.2602 371.906
-15.2454 22.4018 357.788
-14.624 -10.0321 357.619
-15.4327 -13.9122 357.536
-15.7104 17.4478 357.594
75.8071 20.4176 368.484
79.535 -21.2784 361.535
79.1748 29.5148 368.006
76.2389 -49.1174 359.686
82.9509 0.80623 362.457
79.2085 14.8838 368.447
4.65241 21.8653 361.905
78.0982 -24.5496 362.231
51.7895 -1.97828 369.967
11.2235 28.9534 364.151
15.9424 -41.5275 371.84
83.2704 -7.09578 360.246
60.6376 34.1649 365.949
-2.27708 -14.5638 360.18
-2.77714 17.8696 360.328
10.8805 -36.1183 372.567
94.8036 -10.0853 354.958
51.2147 -33.5797 372.933
82.8564 2.31523 362.923
-1.18373 42.4544 361.439
-0.315902 -20.5919 361.329
79.3852 -21.7223 361.422
22.072 35.7103 368.929
69.6081 -35.6006 369.551
82.2258 6.34617 365.285
60.7296 -42.1089 370.792
92.9075 -34.0841 355.478
10.3206 -35.6174 371.917
77.2832 -26.1412 362.789
21.205 44.95 367.865
57.8054 -43.551 370.919
38.2663 35.4118 368.286
88.7309 -32.0681 356.236
32.3569 25.5619 369.441
-12.3104 -23.5307 357.462
83.3679 -3.60231 360.816
80.668 -19.076 360.694
81.0887 -17.5541 360.576
12.5523 -37.4444 372.413
75.728 20.9572 368.699
35.5838 -47.0862 371.434
1.32316 -32.1159 364.621
71.2462 -34.1248 368.868
54.6993 -44.6813 370.952
3.2292 -21.0724 364.258
71.583 -33.6049 368.677
1.0218 -22.8888 362.455
50.9138 -45.7893 370.93
-0.456605 11.935 360.457
70.6014 26.9234 367.421
71.6875 -38.1384 367.176
80.7167 42.9147 366.34
-10.7468 10.4409 358.744
-10.2114 -20.8523 358.514
8.06232 -24.5906 369.931
2.86639 -26.6215 365.242
56.7675 36.3664 365.709
29.2015 38.3442 369.38
52.1947 37.9242 365.272
17.8188 -45.6475 371.448
84.7571 -43.612 357.078
57.2653 -22.5784 372.683
-2.97977 2.30102 360.695
-2.28168 -29.0892 360.904
-3.31593 35.8935 360.855
-2.81256 -12.0235 359.952
13.1096 30.4323 364.951
19.1503 -42.077 372.327
-14.4367 -5.04613 357.397
16.7122 -40.6386 372.237
48.2265 38.901 365.683
78.2919 -33.1277 360.384
79.9073 -35.2937 358.933
4.06157 -20.5692 364.943
-15.7159 10.915 357.65
53.9197 12.3555 368.533
54.8704 -52.9094 368.576
23.459 36.2903 369.527
93.9729 -12.7017 355.535
68.6179 -36.552 370.063
66.2226 -38.5365 370.577
66.7194 30.4261 366.907
13.1496 -38.0284 372.676
-1.28019 10.3701 360.407
21.2824 -42.9896 372.639
-6.24363 10.8107 359.683
94.7141 -35.6128 355.175
-18.9348 17.0797 356.343
26.6861 37.0057 369.389
94.2503 -4.15011 355.204
80.7292 11.4078 367.602
83.5601 -40.6046 357.545
59.5379 -49.5389 369.061
79.7755 2.453 367.289
79.2263 33.8878 367.253
50.7071 38.4094 365.247
62.25 -41.1811 370.885
69.7436 27.8751 367.291
2.20231 17.9322 361.327
39.6525 -51.1727 370.355
69.2619 -36.0908 369.803
81.9045 7.23725 365.765
82.3822 5.41696 364.83
-1.27712 -18.0943 360.773
-1.71791 14.3624 360.608
6.71004 -32.0517 370.343
27.2276 -13.547 371.102
37.4305 -47.1487 372.062
-1.77875 8.88523 360.281
6.23752 23.8865 362.394
68.7575 28.9073 367.234
73.8613 -31.0729 366.376
82.773 3.89486 363.744
88.507 -15.9963 356.527
-3.10954 1.79946 360.296
-3.97586 33.4488 360.418
69.8187 -35.6215 369.331
4.81572 21.8613 362.104
79.5748 -29.023 360.083
8.99094 11.4966 363.966
8.75507 44.9393 363.686
59.3201 -42.7224 370.916
33.0409 -26.9405 371.957
83.1553 0.922008 362.266
27.2704 -42.0622 372.653
72.1882 -33.0905 368.161
53.8571 -45.1223 370.796
79.3673 -22.1297 361.318
12.2954 29.9172 364.602
52.2315 -15.1139 371.68
89.0516 5.15287 357.524
76.7826 -27.0874 363.263
56.6669 -44.078 370.868
42.4045 -10.4652 370.497
-7.73466 -8.04744 358.792
-7.28943 -40.5586 358.891
17.2498 33.3478 367.157
22.2485 -6.1625 370.963
-2.75261 -38.5869 361.703
-1.23079 9.96585 360.561
-0.942231 -20.6356 360.977
64.2125 32.4092 366.682
93.7537 -12.5895 355.294
48.4114 38.6773 365.483
80.7357 -38.6171 358.333
-1.66493 -38.5992 362.666
4.2504 -20.6028 365.241
-15.8255 10.8208 357.46
-15.2907 -21.5381 357.154
27.246 37.9045 369.609
88.7217 29.3996 362.773
40.1103 -41.534 372.611
81.6944 -16.0483 360.172
44.3485 39.3591 366.49
82.9498 1.40863 362.452
19.1819 34.2533 367.988
11.2403 -36.6748 372.349
48.5251 38.8938 365.424
30.18 -45.9953 372.041
79.221 -36.1061 359.286
82.5829 -12.0485 360.096
35.748 -51.1222 370.744
66.2279 -29.5353 371.945
31.2946 -46.5929 371.791
20.3477 -43.3388 372.535
67.1901 29.9815 366.857
45.7459 39.3924 366.26
12.1852 -37.5645 372.752
53.2114 -46.0108 371.128
94.2534 3.93194 355.227
94.7698 -27.605 355.185
81.3127 9.86001 366.843
82.4545 4.88192 364.405
56.6641 36.4242 365.428
61.6914 -41.5849 370.821
-0.8186 11.4238 360.475
55.2132 23.9523 367.122
27.6603 37.9505 369.338
19.251 36.8848 367.892
68.2358 46.7915 364.908
46.63 30.2653 366.602
77.056 -25.9781 363.134
-8.83566 -24.0999 358.35
-1.32811 42.3628 361.565
-0.107457 -20.7536 361.552
82.1333 6.86784 365.707
16.244 2.86922 370.633
68.7358 -36.5893 369.87
66.3442 -32.2236 371.451
42.7916 -53.7299 369.409
-2.39754 -46.0545 363.314
8.76887 -48.6448 370.367
72.6195 -32.5802 367.67
71.7899 -33.5364 368.297
6.20479 -31.5066 369.919
67.6702 37.9532 365.86
14.1295 -38.7255 371.837
95.7824 -34.5781 354.941
95.2401 -3.07587 354.87
3.22128 -27.5797 365.771
43.2097 -38.6228 373.166
18.7469 22.4002 369.195
85.7517 35.8804 365.789
22.6962 16.906 370.345
83.0481 -9.08713 360.169
58.7405 9.90365 368.889
83.1628 -8.55782 360.141
77.7497 25.9269 368.194
78.7225 -41.0886 359.146
68.2503 29.375 367.117
72.7189 24.837 368.051
27.2502 37.8324 369.425
-18.2588 16.9 356.718
40.8893 33.8662 367.421
-17.7682 -13.1159 356.703
21.6592 30.3456 369.558
88.5899 29.4097 363.142
4.49664 -29.0571 367.451
-0.889833 -19.1015 360.94
-1.30003 12.3667 360.639
-2.94941 -0.670219 360.038
-3.3275 30.8253 360.482
68.4415 -36.6169 369.958
81.7796 7.85742 365.864
0.79802 15.409 361.143
0.692964 -23.0668 362.311
25.697 33.4221 369.747
8.24605 -44.1187 371.282
81.2687 41.0206 366.437
81.7366 8.50493 366.299
15.297 -52.6158 369.789
-1.48016 -16.9725 360.48
-1.73955 15.199 360.432
83.0948 0.404351 362.209
90.4063 23.9674 358.971
1.30554 16.3946 361.093
71.2013 -34.1404 369.036
82.8842 -10.5532 359.933
7.92878 25.5796 363.035
82.8847 -14.2349 359.433
48.7893 38.8975 365.698
3.21484 -31.0644 366.756
4.74159 43.4216 362.828
79.0204 -36.0614 359.648
52.801 37.9293 365.267
18.5959 41.4084 366.848
31.1792 -46.5992 372.119
80.2546 12.4354 367.877
5.73651 23.3796 362.188
33.197 -39.0327 373.132
83.3902 -3.24594 360.882
65.6938 -39.0822 370.623
65.7461 31.394 366.738
41.3641 -48.0343 371.638
27.813 -45.5762 372.547
-2.27752 7.38755 360.248
31.7956 -45.5452 371.92
89.9806 1.68174 356.496
90.1271 -28.057 356.121
-2.27276 -15.0453 360.181
-2.7917 16.384 360.373
86.2341 -37.0729 356.766
32.5181 39.0439 368.947
5.74773 26.9087 362.369
77.8369 -10.1041 366.906
-5.95675 10.5577 359.459
-5.25731 -22.0921 359.295
88.6376 -16.6215 356.523
-3.19059 2.34536 360.685
-2.6947 -28.0815 360.604
-3.76339 34.8471 360.63
0.217592 14.3951 360.804
-0.282132 16.3935 360.793
-1.2807 10.4399 360.548
-0.939366 -21.0668 360.974
30.6204 11.8826 370.098
31.6832 -51.1175 370.388
49.3959 38.532 366.026
14.2424 31.4156 365.57
1.82448 -25.0883 363.677
5.64234 -34.6529 369.9
33.2612 -37.0735 372.789
83.4079 -5.13796 360.365
87.4055 -39.6441 356.331
18.8405 34.3601 368.04
21.699 35.9155 369.107
65.6967 -42.6131 369.721
4.82553 7.94017 362.089
4.31518 39.2017 362.469
36.5691 39.4679 369.089
38.2118 -54.5978 369.338
67.7239 29.8637 366.934
6.28886 -40.1567 371.102
55.3278 36.9678 365.313
51.7228 38.3879 365.243
72.1308 -24.176 370.084
71.7325 2.91551 370.412
13.0873 -38.1703 373.17
68.3513 -37.0646 369.91
-2.76319 -13.0482 359.96
59.2127 -43.0865 370.848
28.1752 42.8264 368.957
5.83544 -31.1441 369.646
-2.77655 5.39181 360.256
-2.4786 -25.9583 360.464
55.3713 -34.9114 373.272
-9.67918 0.93395 358.741
-3.34631 1.87833 359.663
-5.76101 9.86654 359.673
-5.06133 -21.4083 359.512
88.7281 -16.0871 356.353
12.75 30.4185 364.785
-16.8606 -18.0619 357.012
-17.3008 15.447 357.049
62.7316 33.4263 366.371
32.256 24.3607 369.662
83.2724 1.39995 362.283
3.27175 19.912 361.738
78.315 -24.5872 361.864
14.2186 -39.143 372.317
5.75574 16.4259 362.185
80.8795 -18.6651 360.386
21.7279 -43.6498 372.254
-7.71853 9.8973 359.583
44.6963 -44.1256 371.871
3.42292 -27.6568 366.143
95.7368 8.39544 354.819
96.2757 -25.5709 354.857
-10.9153 -23.0525 357.911
81.5702 -16.2776 360.57
38.2626 -42.0636 372.27
4.02938 20.6629 362.051
40.9386 39.6004 367.472
33.7937 -47.0942 371.795
9.25891 27.3718 363.299
59.1858 -55.0027 367.15
-10.6069 4.71943 358.453
-10.2572 -27.5845 358.106
8.33007 26.4269 363.096
73.5949 -31.5467 366.675
72.5899 31.5373 366.927
29.2378 -10.5719 370.84
80.3195 12.9232 367.88
3.51389 -50.1122 368.466
-2.78116 -13.0685 360.044
-3.31425 19.4099 360.335
1.63793 -51.5965 367.406
38.294 22.4283 367.98
12.7312 -38.0931 372.763
6.14119 -43.6962 370.461
62.7382 -41.0814 370.75
10.5623 -35.9223 371.963
18.6396 3.44008 370.379
4.9187 -29.6049 368.569
4.20865 21.4301 361.86
82.3981 5.87431 364.81
30.7111 38.9088 369.282
87.2247 -39.6086 356.604
18.7163 34.4573 367.853
-0.980882 10.9372 360.482
82.6026 -12.5511 360.095
83.1305 1.9493 362.638
46.7855 29.921 366.282
-9.20232 8.95079 358.908
-8.5436 -23.5552 358.538
16.4015 -40.4399 371.973
52.1512 -52.8456 369.022
73.774 23.8743 368.271
68.7087 41.4404 365.744
83.2786 -9.05894 359.85
55.2062 7.89105 368.944
78.8131 15.9866 368.46
85.7894 3.87452 359.823
60.2336 34.833 366.139
1.53241 -32.004 364.498
5.69218 -41.5457 370.35
24.888 36.9496 369.467
76.0647 -28.1363 364.098
83.0627 -9.60104 360.081
54.0071 37.2789 365.669
35.138 -47.2063 371.434
-0.28207 13.3937 360.751
2.54123 -26.0381 364.374
67.6824 -37.5959 370.163
69.2571 -12.9926 371.283
43.8901 39.4523 367.042
78.639 -24.0619 361.69
54.215 37.4204 365.208
17.1343 -41.0836 372.672
-0.882062 -19.5634 360.909
-1.2123 12.8959 360.629
24.2523 -44.6574 372.171
83.2539 -9.55703 359.823
82.2051 -13.878 360.507
74.2842 -36.6116 363.717
31.2243 -24.102 371.745
82.5752 4.88511 364.64
-3.78988 26.4208 360.602
78.8682 -23.2266 361.462
90.3703 -19.1432 355.87
63.5114 -34.0111 372.096
39.8247 -45.0706 371.923
8.78259 -34.6067 371.658
78.2344 39.0351 366.466
59.2461 35.3187 366.064
81.763 8.90862 366.324
81.3264 40.4881 366.448
58.216 35.886 365.755
-14.1742 -12.5537 357.732
-14.795 19.9653 357.872
78.8936 -23.6626 361.349
76.2131 -28.0911 363.739
4.60367 -29.559 367.87
67.9662 45.015 365.565
-3.76937 -4.08304 359.77
55.3589 -44.4956 370.995
56.4141 47.0755 363.88
94.2497 -13.1329 354.945
-8.76197 24.8722 359.387
17.115 33.4854 366.945
8.30905 -34.0636 371.544
17.7208 33.8825 367.284
21.8426 -43.5276 372.637
16.2425 -42.0454 372.109
55.1129 36.9471 366.062
60.2798 44.3866 364.831
92.5245 10.6541 356.025
3.09751 -27.1494 365.358
10.153 -21.9947 370.927
41.1949 -53.5662 369.728
1.92073 17.3804 361.571
65.8236 -39.1109 370.365
0.921645 -23.1962 362.551
5.24697 22.8605 362.119
80.8355 11.3826 367.446
85.6661 24.8674 365.21
33.6026 -16.6735 371.048
24.111 -52.0156 370.634
66.706 -45.0727 368.745
19.4781 0.620851 371.695
33.6566 -47.1241 372.071
18.9125 -42.1561 372.723
11.6789 18.4585 364.836
-3.76546 -2.59279 359.811
66.1073 -0.920538 370.47
30.7037 -46.6158 371.727
48.7555 10.9532 368.235
80.7474 18.9103 367.843
79.7214 14.3902 368.261
59.2381 -50.5789 368.674
9.8957 -42.182 371.436
-1.16608 41.8922 361.614
36.399 -8.50288 369.958
-0.190294 -21.1164 361.596
2.20253 18.4259 361.365
38.3021 44.6168 368.549
93.7847 10.9409 355.426
94.2327 -23.1268 355.209
-3.32396 2.89967 360.589
-2.71492 -28.5986 360.65
-3.77839 34.3675 360.628
80.973 -18.1646 360.357
52.5924 37.9701 365.693
-9.24695 -45.571 358.224
76.7323 40.897 366.322
15.6861 31.3844 366.361
-9.77778 -14.1143 358.392
85.2685 -43.5802 356.872
82.9941 2.11513 363.085
33.262 -25.1412 371.852
83.3932 -1.01818 361.415
55.8388 39.4881 364.93
82.8111 -12.0774 359.821
-1.27718 -18.5921 360.744
-1.87991 12.8866 360.543
90.3357 21.3419 358.296
50.895 -46.0968 370.855
0.168111 -22.1028 361.823
78.2613 -37.5739 359.823
80.66 -19.5755 360.606
32.7479 -40.621 372.665
90.2102 9.87346 357.139
83.3697 -8.04808 359.93
3.93273 -28.6202 367.07
26.8075 -45.49 372.164
81.8617 -16.0685 359.956
63.2434 -46.6026 369.212
89.3035 14.3851 358.326
18.657 -54.0388 369.707
-3.77895 -2.12454 359.735
94.6687 -20.1513 354.913
28.6949 38.4179 369.398
69.9158 -1.59019 371.075
3.60366 -28.0229 366.35
22.6771 23.7784 370.131
82.6562 24.3872 367.119
22.682 -9.48646 371.554
57.8189 1.02789 369.967
-2.0968 -44.6057 363.516
-0.76115 11.905 360.455
-6.25183 -4.57475 359.251
-5.93656 -37.5941 359.443
64.3247 32.4356 366.453
18.2744 12.4132 370.254
19.1979 -52.4786 370.098
79.2889 15.3919 368.394
26.7675 37.9304 369.699
-2.92354 -11.7618 359.922
51.9633 38.0254 365.543
7.78307 -44.097 371.145
93.4113 22.8271 356.304
-11.2299 -11.5546 358.136
9.75724 -35.551 372.144
82.7193 4.97606 364.259
24.2227 36.9199 369.597
63.7554 32.842 366.424
18.1751 -41.6591 372.615
7.41804 -32.7824 371.021
79.2794 14.9896 368.54
67.738 29.913 367.107
6.24589 -40.0987 370.768
83.3424 0.414416 361.794
39.2648 26.9317 367.813
81.9807 -14.9538 359.961
63.1878 -45.5569 369.6
28.3286 44.564 368.957
78.6876 16.3922 368.524
65.2593 -54.1757 365.907
39.7975 -47.5864 371.686
15.3992 32.4049 366.107
50.1313 -53.1554 368.902
62.2211 33.882 366.27
17.7961 43.9608 366.095
3.60821 20.7835 362.056
28.3861 38.1937 369.373
29.7669 -55.9741 369.261
73.2866 1.88936 370.304
39.1983 -47.542 371.662
31.2296 -22.5985 371.597
82.9204 3.37549 363.423
78.1001 -25.0683 362.202
-15.2416 22.8917 357.699
-14.8878 -10.7923 357.531
74.4386 22.6661 368.531
40.6062 -47.586 371.676
83.341 -8.59285 359.93
66.8194 -46.7732 367.893
60.2546 -42.6026 370.798
80.7165 14.364 367.682
41.285 -47.5434 371.637
12.2559 -37.6173 373.332
51.2605 38.376 365.249
10.9599 -41.8022 372.636
69.6489 27.9571 366.961
-14.7099 -27.0725 356.818
17.7541 -22.5792 372.248
66.3679 30.8294 367.03
57.2481 36.3642 365.638
82.4758 -12.959 359.946
9.72977 27.9052 363.554
76.651 -27.5352 363.22
59.2078 35.4373 365.928
61.2453 34.4259 366.31
-8.37245 -4.96155 358.439
82.9209 -11.0641 359.93
76.6331 -36.3518 361.546
80.8221 -19.5639 360.391
52.2982 31.8963 366.154
-2.77022 -13.566 360.05
-3.27602 19.8733 360.312
-2.75878 5.87696 360.205
93.7338 30.8789 357.251
26.6491 37.7367 369.407
79.0846 -23.0192 361.612
65.2443 -39.5802 370.753
68.4287 33.0412 366.415
61.7242 -47.5826 369.153
28.6731 -46.0714 372.102
77.8297 -25.6165 362.337
35.7668 28.918 368.845
-0.482913 -22.8262 361.464
-1.28371 40.4087 361.4
-3.79725 -1.57825 359.836
-0.820912 12.4023 360.402
66.2134 -38.6811 370.425
30.6919 -46.4456 372.209
76.9404 -26.7439 362.996
74.0899 -31.1268 366.135
73.1461 36.4758 366.454
-13.3781 31.9046 358.212
-12.8036 -0.538018 358.038
6.77364 -32.1931 370.627
82.5608 5.35768 364.726
-2.63171 -37.0448 361.685
46.1661 18.3713 367.205
3.17049 43.3779 362.462
-3.28503 -11.0624 359.874
40.7278 39.9078 367.67
8.21634 -34.0496 371.392
72.2006 -34.6256 367.676
82.5455 -13.1033 360.076
75.7087 23.8731 368.254
83.1716 2.40216 362.763
-13.7735 -38.5808 356.887
16.5965 -41.0605 372.65
41.3557 39.8521 367.447
76.749 19.9422 368.884
66.1953 43.9347 365.423
67.8276 -52.6254 365.364
71.2448 26.8913 367.678
82.8679 -11.583 359.85
12.3877 15.2625 366.025
1.3722 -29.6195 364.088
9.2359 -35.1162 371.907
79.1178 15.4494 368.548
82.9022 3.91427 363.375
75.4071 -29.2118 364.43
90.9301 35.7972 361.448
6.99637 -45.8683 370.462
89.5905 14.3944 358.123
-12.2678 -24.5635 357.664
83.4626 -4.48867 360.332
89.0822 29.9367 362.621
30.2163 38.8763 369.366
14.6681 34.938 365.412
79.2132 -42.6182 358.751
42.2331 39.8785 367.222
59.3455 -20.6199 372.414
86.2821 -30.0804 356.818
28.294 -46.0482 372.152
76.432 -27.6833 363.447
13.2498 -38.5651 372.277
5.17196 -30.5907 368.83
75.4981 -28.8957 364.772
61.2301 -42.1457 370.765
53.1771 37.6701 365.534
6.57696 24.2987 362.429
10.2548 -54.0813 369.156
18.7658 -42.1532 372.271
35.2319 -8.12859 370.107
40.2807 39.9467 367.85
66.3121 0.915263 370.467
41.7607 39.8986 367.54
7.1671 -33.0582 370.861
33.2329 -27.1656 372.254
83.3576 0.877963 361.924
3.72881 -28.571 366.748
10.7011 -36.6434 372.311
-0.771584 12.3865 360.666
19.8582 -19.4762 372.066
42.7218 -47.1143 371.639
74.6553 22.8731 368.357
57.826 30.4023 366.376
66.1869 -43.0107 369.539
25.1138 37.3331 369.591
26.6357 -55.382 369.576
90.2391 27.4378 360.255
71.7293 26.3855 367.725
42.3084 -32.158 373.119
7.2672 -54.6006 368.359
16.2063 -40.632 372.223
52.2363 -53.1176 368.841
-3.77469 -0.603462 359.881
-3.76962 -7.07324 359.791
-3.12402 -11.0677 360.046
-3.78294 20.3716 360.304
83.64 -3.08898 360.714
51.855 39.548 364.923
42.6914 39.859 367.097
83.5842 -4.04295 360.641
82.7357 -13.0525 359.775
49.629 -21.6677 372.533
81.9175 -15.5859 359.975
40.2558 -47.6164 371.337
83.7508 -20.0837 358.278
-17.1902 21.7845 357.011
48.3439 -38.5955 372.712
70.6992 -25.5628 370.656
-16.7417 -8.69403 357.113
-15.7576 -16.1492 357.204
55.7865 -44.6788 370.887
95.7457 2.41362 354.784
96.2479 -19.5577 354.845
1.13059 -24.0905 362.839
62.82 33.3417 366.557
83.0502 2.90534 363.079
12.756 -38.1841 373.089
46.5331 -46.9234 371.503
37.7604 0.412179 369.242
85.9126 -14.0571 357.443
13.6656 -5.05425 370.431
83.7315 -4.59582 360.254
51.535 -36.5066 373.196
82.1408 7.42732 365.715
11.8182 18.3441 365.137
-3.67233 -2.58998 360.024
-4.25236 27.3921 360.346
39.6835 39.9744 368.105
23.7068 36.9089 369.401
64.6357 -32.5114 371.449
10.2107 -36.0994 372.18
-3.30093 3.42132 360.301
-2.94469 -28.955 360.478
25.2162 37.439 369.31
26.7244 -55.5842 369.264
90.0108 27.4704 360.573
6.81717 24.8604 362.568
78.7409 16.4723 368.463
85.7209 5.387 360.21
43.0774 39.8596 367.048
84.6958 8.42012 362.19
83.5848 -3.60433 360.62
54.7909 -45.1204 370.837
82.4067 -14.0978 359.886
81.2587 41.87 366.549
81.661 9.47807 366.636
15.3218 -55.7534 368.31
-18.7162 -30.5706 356.185
76.7647 26.444 367.909
-19.1652 0.858401 356.345
72.2191 36.0021 366.451
0.519136 -22.5592 361.999
73.3162 -32.1098 366.791
72.2703 32.9262 366.831
2.66113 -27.0275 364.84
40.7315 -54.6462 369.326
-3.77853 -22.6205 359.851
-4.42641 15.3863 359.942
11.6132 43.7629 363.994
81.3542 10.2971 366.9
32.7995 -47.0745 371.829
93.0904 32.0259 358.126
36.2362 13.8742 368.824
35.7796 38.9231 368.811
6.75153 -32.6198 370.634
26.2467 40.9476 369.658
27.7892 -53.4894 369.94
83.7088 -2.57747 360.701
51.7585 39.8969 365.526
0.418924 -22.5627 362.055
81.5752 3.93574 365.591
54.604 37.3554 365.427
61.7544 45.4036 365.08
4.61476 -8.46946 363.394
80.1635 -21.0849 360.717
-3.76878 -7.56985 359.711
-2.37566 6.88377 359.996
63.2601 21.9184 367.69
45.1548 48.237 366.579
70.6712 -35.0424 369.062
72.0446 -33.5289 368.122
20.1902 30.4072 368.85
70.2543 27.8751 367.78
0.217639 14.8985 360.891
-0.286697 15.8961 360.846
77.191 -44.0903 359.648
74.3005 -49.5856 360.855
13.7754 -5.5922 370.624
83.5625 -4.89085 360.547
4.38389 -13.5561 364.124
19.4475 -42.4724 373.082
13.7262 31.3764 365.288
19.3013 -19.5797 371.895
86.2512 5.87863 359.746
75.3194 21.8676 368.408
2.94572 -42.6349 368.679
49.7775 38.889 365.638
1.22727 16.9186 361.139
1.0275 -34.0212 364.474
72.7043 28.9978 367.376
23.7992 36.8877 369.565
83.2207 -10.5593 359.717
66.5608 12.8823 369.002
17.204 -18.5977 372.11
-2.25906 -15.5185 359.954
21.3869 -31.1518 372.662
71.0377 -34.4844 369.072
-1.7441 9.89964 360.333
83.7209 -2.07899 360.764
72.2576 25.8801 367.844
16.7236 33.4195 366.786
28.1224 22.5165 370.073
54.7762 37.4222 365.647
83.017 -10.6213 360.131
-3.13665 -11.4922 360.066
-3.76705 20.8731 360.342
82.5421 -13.5217 360.061
56.2068 -44.6214 370.901
92.9859 -18.0195 355.527
92.7941 12.4192 355.859
35.2347 -31.0945 372.656
-1.58017 -17.5734 360.517
-2.07956 13.4353 360.526
11.2983 -37.0809 372.61
23.6854 13.4427 370.36
20.3741 35.3422 368.58
-1.12041 -34.7117 362.548
86.218 25.3781 364.694
66.5994 -38.5332 370.582
73.3342 -31.6536 366.873
72.127 31.4529 366.95
83.5978 -2.12214 361.023
83.7677 -1.60846 360.768
78.3742 16.9603 368.453
-2.76769 6.39686 360.185
-2.4538 -25.0364 360.488
80.9079 -19.0716 360.35
26.271 37.7632 369.667
8.40718 -42.0575 371.586
67.8041 -37.7404 369.969
14.7846 -40.6129 372.278
71.6122 -34.0696 368.696
-13.1743 -16.5613 358.066
-13.7707 14.8824 358.099
48.7998 3.35868 369.117
9.359 -53.0786 368.936
15.1803 32.4359 365.884
23.5967 45.5272 368.481
82.1425 -8.61307 361.208
-13.3329 -31.9391 357.001
32.6007 -47.1338 372.107
73.8176 -31.5877 366.285
35.5965 -30.1615 372.578
6.17808 24.3618 362.342
35.8857 -51.207 370.479
83.6857 -6.05313 360.175
82.7412 -13.6036 359.695
-1.20803 11.3408 360.72
41.5879 -47.64 371.606
51.4894 -33.8975 373.115
82.7707 -18.6565 358.9
-1.27613 43.3812 361.618
-0.137084 -21.5909 361.66
67.2537 30.358 367.052
23.7442 -44.6393 372.193
-0.933352 -50.0805 365.33
63.2279 -41.0585 370.736
11.7254 29.8773 364.347
29.1828 -20.5511 371.702
5.61633 -31.1014 369.366
9.12298 -42.4284 372.093
81.7279 -33.6064 358.235
8.26042 -48.1622 370.669
72.3537 -33.2268 367.85
83.2339 2.93231 362.772
80.3756 -28.1039 359.427
19.3721 -42.5463 372.825
57.7655 40.3958 366.378
63.2315 33.3855 366.295
59.6596 35.3869 365.841
10.7725 -36.567 372.646
12.8826 -46.5661 371.525
83.6224 -1.08099 361.213
83.0728 3.37827 363.23
-1.27705 -19.0773 360.707
-1.83389 13.4096 360.557
90.6447 -13.5596 356.079
44.234 -15.1197 371.173
44.7248 -47.5983 371.228
3.40308 -28.1048 366.151
-11.2374 9.92327 358.572
6.34447 24.1047 362.53
13.2163 -38.675 372.59
-3.31498 3.92431 360.205
-2.94462 -29.6865 360.469
-3.97654 35.6014 360.479
9.70306 27.8908 363.449
83.5741 -1.54744 361.101
25.2071 -24.0529 371.816
15.7412 32.8964 366.301
1.58814 -25.0515 363.387
32.4634 14.4346 369.489
1.79802 -25.5909 363.757
74.627 -30.5771 365.223
74.623 -17.5532 368.73
27.7578 39.4072 369.627
69.8035 -44.1496 366.839
10.6614 28.9249 363.856
3.10552 -27.431 365.451
43.3008 -38.5859 372.708
85.4912 35.8957 366.025
65.1043 -23.7257 373.251
42.0368 -47.5118 370.874
82.3566 6.89515 365.22
-6.23601 -16.1263 359.121
-6.59312 15.3152 359.411
76.2082 20.9388 368.674
64.6968 -40.0816 370.708
73.2326 24.8449 368.113
11.8823 -37.3427 372.427
-13.8043 3.41165 357.828
-13.2062 -29.02 357.588
49.953 -46.5411 370.916
65.7175 19.3864 368.285
85.0976 36.9004 366.117
19.5074 9.85029 370.298
77.2025 19.3876 369.055
49.2549 16.8962 367.623
8.60999 -34.364 371.454
60.2219 -23.0397 372.469
86.652 -42.4998 356.412
53.7429 37.9431 365.28
11.2317 -37.126 372.237
51.6325 40.867 365.147
4.24368 21.8976 361.87
72.6992 25.3455 367.908
71.7475 -5.58122 370.747
43.2118 39.9365 366.859
84.5471 8.49278 362.7
90.3079 1.85282 356.414
90.845 -29.3853 356.014
83.0308 -11.0012 360.046
83.3496 1.86301 362.299
-9.31477 8.95408 359.04
76.1243 -28.5646 363.644
77.7599 -26.092 362.257
50.2254 38.879 365.389
27.2366 -15.097 371.169
27.8425 -46.606 371.433
37.1894 -47.6381 371.397
69.5514 -36.0535 369.576
80.5828 -20.0027 360.589
82.8541 -12.5499 359.808
45.9447 39.4412 365.996
83.7235 -0.586233 361.202
50.8413 17.9578 367.68
22.2188 36.4148 369.189
31.1491 -20.6746 371.582
82.7865 5.44693 364.274
70.1875 -23.1161 371.11
3.24689 43.3924 362.584
27.8967 38.3398 369.619
83.1998 -11.0424 359.689
-2.32571 -15.2538 359.981
86.3807 -37.2873 356.447
69.1952 -36.5426 369.732
81.7169 41.9039 366.36
82.0811 7.86203 366.078
12.9801 20.864 365.574
49.756 16.4252 367.623
1.06188 16.4212 360.912
55.1584 37.3035 365.627
60.2875 44.8412 365.057
-11.3759 3.36668 358.39
-10.9441 -28.9635 358.113
82.9053 4.90775 363.824
57.2284 3.89398 369.639
-3.33663 -11.5963 359.884
79.8245 13.9666 367.947
3.19482 -28.0583 365.787
18.7369 20.8789 369.346
85.749 35.3849 365.776
8.23209 -2.63513 365.712
50.1108 -46.576 370.867
13.9024 -39.1201 372.652
13.1145 30.8913 364.932
1.9419 -32.1982 365.555
-10.7754 9.46022 358.677
57.1682 36.3484 365.479
58.1922 -2.06481 370.604
10.8343 -55.9149 368.366
-1.38402 41.9551 361.45
27.7491 -21.122 371.737
-0.41 -21.1198 361.392
15.1124 -39.8703 371.946
66.2244 31.3938 366.734
3.26037 20.4033 361.767
45.236 25.9139 366.758
72.5934 -33.0666 367.74
61.7457 34.368 366.153
5.08157 23.0158 361.989
7.30373 -33.1352 371.088
56.2837 -44.5276 371.139
21.1868 -31.0716 372.216
71.2337 -34.6435 368.803
74.1083 6.89253 370.657
79.7429 14.8973 368.276
-3.07386 -11.8644 360.013
-3.7829 19.3782 360.325
85.7617 -39.0911 356.764
20.9236 35.5781 369.041
37.1697 -36.9933 373.065
-3.7782 0.908338 359.82
4.74153 28.3958 362.185
47.2072 -2.10601 369.812
76.1992 37.9033 366.443
84.3614 -9.67011 358.89
88.2652 13.9307 359.241
-3.10339 4.34967 360.134
-2.77743 -26.0515 360.372
-3.97674 36.9514 360.498
32.2803 39.3514 368.956
29.2527 -51.09 370.8
12.3461 -38.0257 373.281
94.233 4.43722 355.184
94.7544 -28.111 355.142
75.7277 21.5141 368.47
18.2941 -42.0728 372.747
6.35644 24.4649 362.577
81.3312 -15.704 360.396
64.1615 -40.2276 370.493
-0.764245 12.9054 360.705
26.2083 -3.08769 370.892
12.2609 30.3925 364.583
25.3498 -24.1947 372.073
76.7113 33.376 367.214
15.8071 32.6983 366.553
47.7367 39.4141 365.744
89.6572 20.4193 359.177
6.69801 24.9367 362.461
52.2537 38.3618 365.307
17.2674 33.8056 367.128
37.3429 29.952 368.426
84.9659 28.5893 365.946
14.2816 31.8646 365.591
52.2596 -45.9376 371.14
-3.28046 -12.0679 359.886
70.4322 -35.204 368.935
67.2189 -23.7027 372.078
53.7344 -45.6114 370.806
40.8858 40.0056 367.455
7.57038 44.5127 363.531
-9.96442 -29.7116 357.964
59.2019 13.9111 368.454
83.7393 -7.5851 359.759
78.173 -35.6305 360.117
46.6411 31.322 366.608
77.0501 -26.9483 363.039
13.3409 30.9642 365.103
83.55 -0.648032 361.574
-1.81418 42.4371 361.377
-0.742493 -20.5932 361.109
27.6943 38.3939 369.358
80.7761 -20.092 360.314
39.932 -52.259 369.935
83.4972 -7.577 360.05
79.7637 -25.5901 360.321
83.6407 -2.59773 361.101
56.6905 46.4352 364.31
51.711 39.9277 365.191
16.2042 25.42 367.289
77.5307 18.5631 369.158
79.0851 -27.5663 360.599
23.1663 -28.0906 371.951
15.161 -18.1656 371.873
11.8056 -37.5349 372.288
9.11893 -11.1043 368.32
81.827 -17.1345 359.898
-3.36434 3.31366 360.609
-2.75748 -29.089 360.733
-3.77092 35.8825 360.712
24.7634 6.36906 370.666
-19.145 6.91726 356.582
71.0741 26.8781 367.497
3.10033 -49.6192 368.443
44.2073 39.9216 366.722
82.6702 6.34533 364.713
83.3481 2.38438 362.319
5.78112 -31.6164 369.672
26.1915 37.9181 369.342
18.6194 15.9397 369.976
29.7548 38.7323 368.9
73.668 -32.0719 366.269
83.5967 0.453752 361.613
78.5951 -24.5375 361.711
80.3075 -30.0825 359.308
-2.73547 -14.5308 360.103
-3.27605 16.8579 360.317
32.2218 7.399 369.617
32.9857 -55.4889 369.606
89.8808 -1.10778 356.427
90.3304 -33.1385 356.075
57.7577 -44.1208 370.89
44.3807 39.8314 366.476
14.5902 -39.7085 372.555
71.716 39.9404 365.925
-1.38014 -18.3683 360.438
-1.77048 12.8803 360.366
13.7883 31.2902 365.524
83.7228 -0.108216 361.263
83.5865 -0.0303844 361.587
-6.74814 0.898437 359.183
-6.21272 -31.6304 359.11
4.56481 -30.0285 367.818
76.4003 -28.1623 363.391
76.6013 -18.5334 366.667
54.2503 -7.60741 370.852
20.1589 35.4581 368.419
92.1819 8.43892 356.048
29.2659 -46.5778 371.777
44.6887 -47.395 371.569
14.1926 38.4449 364.903
-10.3434 -20.0745 357.924
79.0884 15.7627 368.633
77.7275 40.4366 366.389
50.2915 38.784 365.535
66.2671 -1.58395 370.818
-12.2891 -5.54906 357.909
72.7757 25.4373 368.064
-9.60635 -45.4378 358.17
64.6522 -36.3278 371.543
-10.2917 -10.5997 358.301
64.2525 -40.5461 370.738
83.6573 12.9562 365.154
31.0915 39.0492 368.997
44.8529 39.9393 366.338
9.1731 -12.5522 368.779
81.6238 -17.5369 360.109
59.2527 36.4154 365.848
35.1855 11.4685 368.957
34.7357 43.9453 368.762
66.3289 -39.0032 370.561
74.9375 -30.2114 364.797
69.6502 -44.6019 367.147
1.83651 -51.6056 367.626
12.6046 -38.0653 372.432
46.7036 2.87849 368.844
70.3855 -33.6455 369.44
3.75578 -29.0488 366.772
36.7017 10.4318 368.796
36.258 42.768 368.629
85.4162 11.352 361.927
78.678 -37.0221 359.626
73.2436 -32.6287 366.743
72.2277 32.4249 366.907
83.8629 -3.08443 360.367
69.7777 -36.1227 369.278
-1.78741 10.3801 360.353
-14.2624 -9.04028 357.44
78.875 -24.1389 361.378
48.2915 39.1493 366.11
82.8745 4.63412 363.443
5.23416 23.3764 362.139
13.7646 -15.2218 371.592
14.2329 -45.0935 371.726
2.17636 -26.6105 364.304
-18.2337 -31.0778 356.147
-18.9425 0.59545 356.488
68.1522 -37.5188 370.094
67.2593 -3.06269 370.975
67.7497 -34.6043 370.809
34.6625 -47.5395 371.613
8.77197 27.3723 363.248
42.2206 2.86392 368.852
60.2328 35.0503 365.8
63.202 19.8431 368.107
-10.5918 -18.4395 357.943
54.7468 -0.64092 370.177
76.6324 20.4601 369.067
80.7338 27.9284 367.767
44.6786 39.9094 366.63
32.5133 -1.32955 370.057
83.3051 3.42417 362.783
80.6203 10.8994 367.625
4.21484 -34.6247 368.701
27.855 2.86794 370.567
5.14757 -30.9986 368.873
8.27556 26.9035 363.1
28.8437 46.426 368.864
73.7559 24.3783 368.18
73.0661 -21.1582 369.555
72.6809 9.43803 369.774
83.795 0.377214 361.297
76.6786 -26.1158 363.661
-6.71063 -0.792484 358.951
45.6041 39.599 366.518
52.1797 -46.1134 370.868
37.3063 40.0275 368.338
6.73871 -32.5838 370.4
26.2088 40.9417 369.241
68.2794 29.5847 366.976
9.25768 27.878 363.282
76.6048 -28.0609 363.199
0.729142 -52.1131 366.744
37.1478 -47.0924 371.444
27.5873 -46.014 372.054
52.2539 39.3961 365.303
-2.27747 8.88406 360.234
-1.91264 -21.0808 360.438
85.4918 -21.0437 357.547
50.6637 38.846 365.344
74.8518 -30.6106 364.808
69.9469 -44.2481 366.392
86.3788 7.38876 359.902
75.2226 22.4862 368.371
76.8576 -27.6587 362.842
57.2462 -11.4425 371.404
57.6999 -43.0349 371.138
11.1986 2.51165 367.763
-2.27761 -16.5632 360.267
-2.78601 15.8618 360.36
20.9751 35.6811 369.049
26.2031 -20.5767 371.699
87.8394 -1.55419 357.427
73.4099 -32.0742 366.453
57.7029 36.3977 365.41
84.0802 42.3896 366.652
27.3779 38.3518 369.369
25.7897 -45.5437 372.141
71.3388 -46.0812 364.784
65.7072 29.909 366.867
59.8931 35.34 366.046
56.7441 -44.5823 370.821
91.2545 -31.6178 355.77
81.7992 41.3972 366.397
82.1716 8.46745 366.193
-3.27377 4.89027 360.064
-2.81968 -26.5317 360.4
-3.70976 36.3789 360.432
83.7284 -8.06078 359.741
77.281 19.4651 368.897
79.2267 15.945 368.377
20.7281 -27.9707 371.954
48.2579 -47.0925 371.247
12.75 30.9238 364.786
15.2834 -18.0884 372.139
23.2139 -28.0998 372.163
11.6526 -37.6 372.697
83.0049 4.13222 363.573
92.7467 6.40826 355.743
93.2281 -24.1581 355.592
9.76039 28.3607 363.388
68.6573 29.3008 366.986
92.6368 -34.5323 355.583
92.2306 -2.06593 355.652
32.7318 -7.07297 370.209
83.4347 1.40664 361.943
8.20777 -34.5384 371.411
72.2476 -34.1397 367.771
-0.0827673 -31.7278 363.07
12.0689 -37.6938 371.82
38.2683 -8.11549 370.237
83.3917 32.7232 366.453
65.6944 -39.5988 370.585
29.3106 38.9363 369.643
70.206 -42.6082 367.217
72.8706 41.9807 366.039
0.217566 15.395 360.815
0.729037 16.3748 361.115
23.7587 -44.6392 372.622
51.6211 29.0995 365.988
